-7.210999999999999355e-02 1.554999999999999993e-01 2.764499999999999943e-02 1.087721570566567847e-01 -9.650441402157722282e-01 -2.384500477761381521e-01
-7.866299999999999681e-02 1.526899999999999924e-01 3.226799999999999807e-02 2.705646764873226306e-01 -8.970106138760691739e-01 -3.495235534709899561e-01
-8.156900000000000261e-02 1.537399999999999878e-01 2.608500000000000055e-02 -5.268937512224614039e-01 8.233672021291457144e-01 -2.108303236746208453e-01
-8.724999999999999423e-02 1.522999999999999909e-01 2.213499999999999843e-02 5.242285269251297786e-01 -6.069697451821418621e-01 -5.973040933991948798e-01
-5.725000000000000228e-02 1.556800000000000128e-01 1.032500000000000084e-02 -2.253199934441649926e-02 -6.846247704604747630e-01 -7.285473441564969121e-01
-5.788800000000000195e-02 1.575000000000000011e-01 7.322500000000000016e-03 -2.253199934441649926e-02 -6.846247704604747630e-01 -7.285473441564969121e-01
-8.849999999999999534e-02 1.522300000000000042e-01 1.921499999999999944e-02 5.242285269251297786e-01 -6.069697451821418621e-01 -5.973040933991948798e-01
-5.612899999999999834e-02 1.461600000000000121e-01 3.084999999999999895e-02 -1.317708716754743652e-02 2.495355286838287778e-01 -9.682759856044458324e-01
-5.470499999999999668e-02 1.355500000000000038e-01 3.212700000000000278e-02 6.684777124906691181e-01 6.251464863384300630e-01 -4.029012515765590940e-01
-5.414399999999999769e-02 1.471399999999999930e-01 2.627499999999999974e-02 -9.129024089638360095e-01 -3.980142580936816832e-01 9.051984347181095403e-02
-4.662499999999999978e-02 1.323400000000000132e-01 2.190900000000000139e-02 7.719106203218507600e-01 4.688395878923385940e-01 4.293523437216543726e-01
-5.138999999999999818e-02 1.369400000000000062e-01 2.578700000000000089e-02 4.704059409075046078e-02 5.487482194539130553e-01 -8.346631501113181972e-01
-1.827799999999999911e-02 1.223800000000000027e-01 3.077299999999999827e-02 3.048182042546105364e-01 -8.578965145399326531e-01 -4.136416718552777261e-01
-2.165600000000000164e-02 1.164300000000000057e-01 3.520899999999999724e-02 -3.156031383156746029e-01 9.338367378161790411e-01 1.683555944723364450e-01
-3.192099999999999799e-02 1.156599999999999989e-01 3.285099999999999826e-02 -4.707195834289071290e-01 4.106151245304994202e-01 7.809086331212624632e-01
-2.134799999999999892e-02 1.242100000000000010e-01 2.456200000000000050e-02 3.441930144685108051e-01 -7.811173677743324939e-01 -5.209480075327845849e-01
-3.241000000000000131e-02 1.234900000000000025e-01 2.329300000000000120e-02 8.277705850217221828e-01 3.179118178191170929e-01 4.623071864720909585e-01
-2.486899999999999875e-02 1.209400000000000058e-01 2.874499999999999972e-02 2.012567019712926120e-01 -9.486599245157137927e-01 -2.440083759412332021e-01
-3.174699999999999744e-02 1.203899999999999970e-01 2.822900000000000062e-02 -1.762325554586076370e-01 9.832519467018011605e-01 4.645100325770232241e-02
-5.291200000000000070e-02 1.268600000000000005e-01 3.496799999999999908e-02 -1.684554819411117343e-01 -3.137227121802926288e-01 -9.344521445564930584e-01
-4.167200000000000071e-02 1.156400000000000067e-01 3.299799999999999955e-02 4.903958842535573459e-01 3.709122111529099541e-01 7.886291957091308147e-01
-5.203699999999999992e-02 1.168000000000000010e-01 3.458200000000000163e-02 6.033008004528063184e-01 -1.344020674083250821e-01 7.861070082688303984e-01
-4.249499999999999805e-02 1.248800000000000049e-01 2.408199999999999924e-02 -7.040949269922083253e-01 -6.986916934713766070e-01 -1.268079305798203993e-01
-4.794600000000000251e-02 1.273600000000000010e-01 2.810800000000000104e-02 6.811175594401479572e-01 5.474597744255813581e-01 -4.861755501957994441e-01
-4.242100000000000037e-02 1.203499999999999986e-01 2.863299999999999873e-02 -4.758249755213777576e-01 -5.246395893488394746e-01 7.059347660782554490e-01
-4.766100000000000197e-02 1.202399999999999997e-01 2.887100000000000083e-02 3.155506975577269668e-01 -9.011997416514065939e-01 2.970972617145272721e-01
-3.596400000000000291e-02 1.512999999999999901e-01 5.395000000000000490e-04 -3.604293870446836356e-01 2.477315047836713691e-01 8.992884734567722083e-01
-5.059799999999999714e-02 1.474000000000000032e-01 1.388099999999999924e-02 9.355580922017752155e-01 2.814998349587023441e-01 2.132812674240242012e-01
-4.637499999999999956e-02 1.329299999999999926e-01 1.828899999999999970e-02 -6.363547226828067949e-01 -5.584242311996483465e-01 -5.321795232140836829e-01
-4.912500000000000200e-02 1.385599999999999887e-01 1.626899999999999874e-02 8.349368543331446846e-01 3.920223926458085706e-01 3.862627252797352084e-01
-4.297600000000000031e-02 1.491500000000000048e-01 5.400300000000000239e-03 -4.477641272415569529e-01 9.601281890440169220e-02 8.889819036187616152e-01
-4.796500000000000069e-02 1.465899999999999981e-01 8.678299999999999903e-03 -2.897171020411188902e-01 -2.402194719695673331e-01 -9.264764465821881956e-01
-2.292599999999999846e-02 1.262999999999999956e-01 1.807699999999999932e-02 1.401633833099971971e-01 -8.771060560545284046e-01 -4.593900221071037793e-01
-3.158299999999999996e-02 1.259000000000000119e-01 1.780400000000000038e-02 -3.806644537129321715e-01 8.363510012849024733e-01 3.944763317731197483e-01
-4.173299999999999926e-02 1.279599999999999904e-01 1.665000000000000160e-02 8.159384084239995616e-01 5.592446978762338761e-01 1.465942753173885005e-01
-6.148200000000000193e-02 1.469799999999999995e-01 3.616799999999999876e-02 -4.456682363364781740e-01 -3.088189547623357845e-01 8.402444146200743758e-01
-7.172900000000000109e-02 1.502600000000000047e-01 3.832800000000000096e-02 6.255980147230023602e-01 4.654216032855835183e-01 6.261069039466942154e-01
-6.052600000000000341e-02 1.368000000000000049e-01 3.599900000000000322e-02 3.652158124848318282e-02 3.700050951661761900e-01 -9.283115875901685188e-01
-8.261899999999999800e-02 1.482300000000000006e-01 3.595500000000000085e-02 -5.352999893876079218e-01 8.227838983173045850e-01 1.909988953669792822e-01
-8.782399999999999929e-02 1.444900000000000073e-01 3.377900000000000347e-02 -7.144570673361704261e-01 6.957900256120470583e-01 -7.367047707315291238e-02
-8.899999999999999578e-02 1.382799999999999863e-01 3.777400000000000202e-02 -7.486430377639737843e-01 4.432250051756490006e-01 4.930367093782935251e-01
-8.566200000000000203e-02 1.509500000000000008e-01 2.820800000000000043e-02 5.790885319613767734e-01 -7.405628526367951103e-01 3.409151411205867954e-01
-8.960100000000000009e-02 1.472499999999999920e-01 2.586899999999999963e-02 -8.380477748175677588e-01 5.334192181775174735e-01 1.146292493310886729e-01
-9.068099999999999772e-02 1.374799999999999911e-01 2.368999999999999925e-02 -9.685274825606141613e-01 -7.642439037613552033e-02 2.368835749486135067e-01
-5.872200000000000336e-02 1.292399999999999938e-01 3.899199999999999888e-02 6.120136834141222115e-01 6.974502274139803282e-01 -3.728302986535112495e-01
-6.007500000000000340e-02 1.151200000000000001e-01 3.768500000000000322e-02 5.810575325564901750e-01 -7.978096869107160760e-01 1.608472795256057908e-01
-9.181200000000000472e-02 1.276700000000000057e-01 3.870300000000000129e-02 -9.588137283321650495e-01 2.455859860177684872e-01 -1.427016392108156340e-01
-9.172700000000000298e-02 1.165699999999999931e-01 3.961900000000000144e-02 -8.902922262103840634e-01 4.485345069470541568e-01 -7.876206033040122900e-02
-9.316399999999999681e-02 1.272099999999999898e-01 2.521100000000000077e-02 -9.856059280769118303e-01 6.795376229898787701e-02 -1.548036524257187518e-01
-9.393799999999999373e-02 1.206699999999999995e-01 2.439900000000000055e-02 -9.535960574002094736e-01 3.010069885728096084e-01 -7.025107906999211033e-03
-9.158299999999999774e-02 1.452199999999999880e-01 1.985999999999999918e-02 9.821656209095723788e-01 -1.880141345231603200e-01 1.174019940538175441e-03
-9.092899999999999594e-02 1.366700000000000137e-01 1.981700000000000128e-02 -9.685274825606141613e-01 -7.642439037613552033e-02 2.368835749486135067e-01
-9.309399999999999620e-02 1.163499999999999951e-01 1.895900000000000016e-02 7.773940753462439401e-01 2.887604291674734647e-01 5.588052112442853936e-01
2.494800000000000142e-02 1.028599999999999931e-01 4.141800000000000342e-02 2.839535997147352858e-02 -6.420892406759932669e-01 7.661038510151326753e-01
3.359999999999999792e-02 9.262700000000000100e-02 4.046299999999999897e-02 -6.779891797656142360e-01 -7.296162153269074579e-01 8.939155694353559389e-02
2.741999999999999993e-02 9.638599999999999945e-02 4.331200000000000327e-02 4.779015994914771470e-01 7.645944430796263180e-01 -4.324412085072875112e-01
3.391999999999999876e-02 8.691100000000000214e-02 4.103400000000000103e-02 -6.969749586906839323e-01 -7.100291013380940486e-01 1.004220205489693152e-01
2.815600000000000047e-02 8.683699999999999752e-02 4.508399999999999908e-02 5.186041448783965668e-01 -8.085328583496254051e-01 2.780725766484917760e-01
3.380999999999999978e-02 7.860399999999999332e-02 4.085400000000000142e-02 -6.889997046490962118e-01 7.194290268703811275e-01 8.775695009396571045e-02
2.812500000000000069e-02 7.687399999999999789e-02 4.505900000000000183e-02 6.076774385716982030e-01 -6.944399377036547527e-01 -3.853327180153326981e-01
1.450000000000000074e-02 9.327900000000000080e-02 5.088000000000000161e-02 -2.404328057630326226e-02 -4.787622057282643895e-01 8.776153320363863086e-01
7.481699999999999982e-03 9.472999999999999476e-02 5.231500000000000039e-02 -2.377922002159242598e-01 -9.685634195545631542e-01 -7.307374232404595382e-02
1.740699999999999886e-02 1.053499999999999992e-01 4.313899999999999679e-02 2.049839267968273648e-01 5.317900310880744330e-01 8.216939531177634981e-01
7.953599999999999906e-03 1.063299999999999940e-01 4.296799999999999925e-02 1.077102669824551023e-01 5.063377594842423113e-01 8.555820075872598851e-01
1.851099999999999968e-02 9.719400000000000261e-02 4.725300000000000333e-02 -3.965485584135580166e-01 -9.164612434364993732e-01 -5.336693825726429585e-02
8.643599999999999547e-03 9.932299999999999462e-02 4.807899999999999674e-02 5.433318354372187464e-01 3.682678232681225738e-01 7.544331162838638916e-01
-2.019700000000000141e-03 9.569800000000000528e-02 5.390600000000000253e-02 -8.560486384322740783e-02 -9.828924056381894703e-01 1.630776693025611235e-01
-1.144599999999999958e-02 9.516900000000000359e-02 5.386200000000000015e-02 -1.627053403013432320e-01 9.651204661649144256e-01 -2.051084055494620806e-01
-1.874999999999999931e-03 1.069100000000000050e-01 4.345500000000000057e-02 -1.137868838706491276e-01 -9.863765970690793194e-01 1.188013207562553242e-01
-1.187500000000000014e-02 1.068800000000000028e-01 4.301900000000000168e-02 -1.464362464719905499e-01 9.886757245247120851e-01 3.281367786046474055e-02
-1.762200000000000008e-03 1.007099999999999940e-01 4.664800000000000196e-02 7.243326026380950688e-01 5.634372933311138781e-02 6.871445735217303064e-01
-1.249800000000000043e-02 1.000800000000000023e-01 4.591599999999999848e-02 7.238011785913318619e-01 -1.910379585336763053e-01 6.630357096484957857e-01
1.638099999999999973e-02 8.589399999999999813e-02 5.164200000000000040e-02 4.270893014109382602e-01 8.394168600993464624e-01 3.361161459990739120e-01
8.116699999999999263e-03 8.691000000000000114e-02 5.522799999999999931e-02 7.251454183168630496e-02 -5.316935779282495611e-01 8.438267478652222708e-01
1.764399999999999996e-02 7.695499999999999563e-02 5.237200000000000188e-02 -9.871486875664111163e-04 -1.259608159354679013e-02 9.999201789472785817e-01
8.125000000000000278e-03 7.685300000000000464e-02 5.553600000000000203e-02 -9.985509207569891466e-01 -2.705206730559463202e-02 -4.652189982540502061e-02
2.057499999999999954e-02 8.816899999999999737e-02 4.900600000000000095e-02 4.664351216077008422e-01 8.119280377557950290e-01 -3.510144424903823834e-01
2.244499999999999967e-02 7.572099999999999664e-02 4.956300000000000289e-02 -1.923022754052492031e-03 3.469872045203499789e-01 -9.378678914871945160e-01
-1.793099999999999946e-03 8.684899999999999565e-02 5.684299999999999770e-02 3.149118174651678315e-01 5.174227064347327459e-02 9.477077889699336843e-01
-1.194300000000000049e-02 8.677100000000000091e-02 5.700899999999999718e-02 2.196800776966315386e-02 -1.697821883937068177e-01 -9.852367305063671754e-01
-1.956700000000000019e-03 7.686300000000000077e-02 5.780300000000000021e-02 -7.849629320888575068e-02 1.120801947041732555e-01 9.905946786961129513e-01
-1.187500000000000014e-02 7.696400000000000463e-02 5.702200000000000324e-02 -4.401630599314465542e-02 -6.704358410941535507e-02 9.967786728439174126e-01
3.325000000000000178e-02 6.754100000000000381e-02 4.003299999999999914e-02 1.976046866380821304e-02 4.994190013742976636e-02 9.985566235766750731e-01
2.814900000000000041e-02 6.682899999999999952e-02 4.295299999999999813e-02 1.266279218569646703e-01 -1.416500195684466390e-01 9.817844169482651262e-01
2.676100000000000007e-02 5.782899999999999846e-02 4.258800000000000086e-02 -4.825633895394009221e-01 1.881599831957493085e-01 8.554112436717323797e-01
2.357100000000000167e-02 4.746000000000000218e-02 4.042799999999999866e-02 6.311693461316449927e-01 5.709067750407423869e-01 5.250625779050828168e-01
1.583199999999999885e-02 6.741800000000000570e-02 5.163899999999999740e-02 4.490628574806441731e-01 -8.431880475563542365e-01 2.955951056587744485e-01
8.043099999999999208e-03 6.690200000000000313e-02 5.500599999999999934e-02 1.003502413939345306e-01 -1.320769064872525378e-01 9.861468043982783982e-01
1.398399999999999990e-02 5.888600000000000084e-02 5.041600000000000248e-02 9.051792353168848504e-02 4.742500855968365681e-01 8.757244782640853931e-01
8.097299999999999984e-03 5.688800000000000107e-02 5.294999999999999707e-02 6.935962123471720031e-02 4.594166559735880506e-01 8.855086556077375048e-01
2.056600000000000095e-02 6.595800000000000274e-02 4.830000000000000265e-02 -4.857805122769766060e-01 1.675468056032271835e-01 8.578725790139654084e-01
1.859399999999999942e-02 5.653899999999999898e-02 4.787899999999999795e-02 -4.215822585314715210e-01 1.911111155619646396e-01 8.864225520597753816e-01
1.287499999999999929e-02 5.265199999999999741e-02 4.968899999999999706e-02 -6.203632363499624741e-02 5.672452735507691468e-01 8.212090441441612931e-01
-1.785200000000000025e-03 6.671199999999999353e-02 5.650299999999999767e-02 1.505510695497962736e-01 -9.260614560077959911e-01 3.460103491421207544e-01
-1.178500000000000034e-02 6.688500000000000001e-02 5.501500000000000140e-02 1.090512501668161049e-01 3.052289144056061221e-01 9.459350272648787694e-01
-1.874999999999999931e-03 5.659700000000000147e-02 5.441000000000000003e-02 -3.698184042765191304e-01 2.435242342372667956e-01 8.952469516441942110e-01
-1.183999999999999983e-02 5.705400000000000055e-02 5.271399999999999697e-02 -3.740223840797327060e-01 -9.273549957661280096e-01 1.095299205320774370e-02
-1.568800000000000056e-02 5.246900000000000175e-02 4.961499999999999938e-02 4.856953995628582321e-01 6.479121150917189764e-01 5.867792344322103615e-01
6.615399999999999579e-03 4.993000000000000216e-02 5.125899999999999901e-02 -2.205945851754627929e-01 9.632963258023625741e-01 -1.529647596243454144e-01
1.808799999999999991e-02 4.665500000000000203e-02 4.332099999999999840e-02 -1.385947077619302178e-02 -1.062045388699196929e-01 9.942477110827218079e-01
8.840999999999999900e-03 4.543699999999999822e-02 4.662299999999999778e-02 -4.221390253731079900e-01 9.014434444436162375e-01 9.590807956930104405e-02
1.768799999999999886e-02 3.971899999999999736e-02 4.308399999999999730e-02 4.361864714805596677e-02 -2.455766770926294806e-01 9.683953269657571417e-01
8.125000000000000278e-03 3.951600000000000251e-02 4.537399999999999767e-02 3.006537250231484659e-01 1.220000444103363363e-01 9.458981587853847461e-01
-1.611100000000000075e-03 4.984399999999999942e-02 5.172000000000000208e-02 -3.715688992153808740e-02 -9.982519434778601708e-01 -4.596110174956279104e-02
-1.244999999999999926e-02 4.677300000000000207e-02 5.090299999999999686e-02 5.798738734838718156e-02 -2.796288425086160268e-01 9.583554525048625372e-01
-1.385100000000000046e-02 3.977800000000000086e-02 5.103599999999999803e-02 9.850181765347697238e-02 1.141968704173086241e-01 9.885628289116750178e-01
-2.029400000000000214e-03 4.487399999999999722e-02 4.758699999999999736e-02 1.349017431426183244e-01 -2.139422047864754095e-01 9.674865646137855713e-01
-1.165300000000000016e-02 4.685999999999999888e-02 4.866100000000000286e-02 8.932748293149429808e-02 -2.486390976711171652e-01 9.644683509075953065e-01
-1.861100000000000081e-03 3.960600000000000231e-02 4.733899999999999914e-02 2.285264367224529858e-01 1.549910001542176841e-01 9.611209380666587698e-01
-9.154499999999999443e-03 3.957999999999999713e-02 4.941500000000000059e-02 -1.960776465395789869e-01 -6.142264927218605425e-02 -9.786627686204710797e-01
4.366099999999999842e-02 9.402800000000000047e-02 2.251999999999999835e-02 -9.554992784982827558e-01 -2.949900248820932491e-01 1.419157962703615277e-03
3.464199999999999918e-02 1.047300000000000036e-01 3.183099999999999818e-02 -6.879053279476073923e-01 -7.244908487199257507e-01 -4.358061383662097110e-02
2.834300000000000014e-02 1.072000000000000036e-01 3.633900000000000324e-02 5.092914760458392420e-01 6.333721553610460742e-01 5.826335943286775620e-01
3.633900000000000324e-02 9.655199999999999894e-02 3.484299999999999897e-02 -3.192262212535982857e-01 3.262927268597062835e-01 -8.897346099048895063e-01
3.173299999999999732e-02 9.937200000000000200e-02 3.850499999999999756e-02 -6.104552254325568139e-01 -7.865232344643490192e-01 9.341102392022530843e-02
3.699800000000000311e-02 1.066799999999999971e-01 2.678099999999999925e-02 -1.293528632840077186e-01 4.023375821135406483e-01 -9.063069605708976573e-01
3.287500000000000144e-02 1.110799999999999982e-01 2.959000000000000172e-02 6.604604034906699228e-01 5.309308409239584803e-01 5.309467935459445398e-01
4.093800000000000217e-02 9.713199999999999612e-02 2.666299999999999920e-02 -1.071601840816080314e-01 4.965450156353959366e-01 -8.613708506765481721e-01
4.415299999999999780e-02 8.646600000000000119e-02 2.424099999999999866e-02 -9.671686699824832978e-01 -2.435948925021567402e-01 7.243129262395524293e-02
5.374999999999999917e-02 7.222099999999999353e-02 2.042899999999999924e-02 -2.760028883908117736e-01 -9.607923999863181574e-01 2.646449939937870269e-02
4.515999999999999875e-02 7.657400000000000317e-02 2.359400000000000039e-02 8.066517820372792746e-01 1.890393388395945548e-02 -5.907245921914819897e-01
3.803600000000000037e-02 8.666300000000000392e-02 3.545899999999999747e-02 -2.000087726958466317e-01 -1.291991490605064463e-01 -9.712384211545289636e-01
3.786099999999999882e-02 7.662499999999999867e-02 3.565800000000000219e-02 -8.198072306630486139e-01 5.708216227476839988e-01 4.559363504134970879e-02
4.221599999999999658e-02 8.723699999999999510e-02 2.825400000000000134e-02 -3.664005989515720096e-01 -1.779667472952281559e-01 9.132789485940679963e-01
4.235499999999999682e-02 7.674699999999999578e-02 2.858000000000000124e-02 8.547601772225755790e-01 3.959389948297725170e-01 3.355850887740903232e-01
4.387499999999999734e-02 9.622799999999999410e-02 1.526899999999999959e-02 -9.717553507606133678e-01 -2.317966193824633758e-01 4.429295103037220876e-02
4.437499999999999778e-02 9.679699999999999416e-02 8.644499999999999407e-03 -2.937227449994369022e-01 -3.292613559182125393e-01 -8.973928396019749121e-01
3.954499999999999682e-02 1.060999999999999999e-01 1.765500000000000055e-02 -8.757540828880605588e-01 -4.809368705379060693e-01 4.188690561616777164e-02
4.231300000000000339e-02 1.000899999999999984e-01 1.723699999999999885e-02 -9.204931968012183274e-01 -3.641413990003334877e-01 -1.417508948005389013e-01
4.540600000000000191e-02 8.741699999999999471e-02 1.560399999999999981e-02 -9.852364055442482949e-01 -1.429677186369106012e-01 9.417779259468138375e-02
5.511800000000000033e-02 7.263899999999999524e-02 1.794400000000000162e-02 -1.405770272192709835e-01 -7.857453286727430486e-01 6.023639911939919767e-01
4.872200000000000142e-02 7.376000000000000612e-02 1.743400000000000158e-02 -3.444020159965835992e-01 -7.523081127836863669e-01 5.616224308352870676e-01
4.591699999999999948e-02 8.629799999999999971e-02 9.421099999999999960e-03 -1.775038474599204275e-01 -9.827454864165707793e-01 -5.180489512398574192e-02
1.943299999999999889e-02 1.096000000000000030e-01 3.906300000000000050e-02 -5.514411150894812930e-02 -5.860335513857447554e-01 8.084081912104185141e-01
1.097000000000000058e-02 1.105799999999999977e-01 3.964800000000000268e-02 1.537800540628564416e-01 4.737160828613856123e-01 8.671474890760452192e-01
4.665699999999999709e-02 5.715300000000000241e-02 3.133699999999999680e-02 -2.553971784901566400e-01 -1.798944547942892269e-01 -9.499527705910081332e-01
5.607899999999999691e-02 6.633500000000000507e-02 2.412200000000000108e-02 -5.725466354635710964e-01 -8.154752395992469483e-01 -8.479672057276371744e-02
4.816800000000000248e-02 6.701000000000000012e-02 2.629799999999999846e-02 -4.920706124492988387e-01 4.497392071545985859e-01 7.453865828626948797e-01
5.605500000000000066e-02 5.725299999999999834e-02 2.490200000000000052e-02 -8.073729915433124349e-01 5.900293552767799099e-01 3.769938735555681490e-03
5.116300000000000014e-02 5.666199999999999709e-02 2.913699999999999971e-02 -4.258838741806774686e-01 1.787482248913918326e-01 8.869453183883621028e-01
3.691400000000000237e-02 6.703199999999999437e-02 3.612200000000000133e-02 -7.946405328524853706e-01 6.040992598040710870e-01 -6.008750162963438779e-02
3.300000000000000155e-02 6.471999999999999975e-02 3.990300000000000097e-02 -5.862758609546313560e-01 1.492742680838407554e-01 7.962397928701749894e-01
3.800400000000000306e-02 5.650700000000000167e-02 3.311900000000000260e-02 1.117135647316551683e-01 1.184210706603963659e-02 9.936698868110992455e-01
3.062899999999999998e-02 5.491499999999999854e-02 3.848399999999999738e-02 -5.707012368913271239e-01 8.140814164442599088e-01 1.075711188508187838e-01
4.187500000000000250e-02 6.638299999999999756e-02 2.835700000000000026e-02 3.086220227067653504e-03 -2.458534225876248813e-01 9.693021045301928318e-01
4.143399999999999861e-02 6.087999999999999662e-02 2.963199999999999862e-02 -4.291434034309704049e-01 6.247443208469978526e-02 9.010731849452505715e-01
4.492100000000000259e-02 4.990399999999999697e-02 3.124299999999999994e-02 3.188473978468677750e-01 -7.080859939942637515e-01 -6.300401272898709104e-01
5.463500000000000301e-02 5.016700000000000326e-02 2.204400000000000109e-02 -7.887898829589162775e-01 4.874434706572050580e-01 3.744454345499724224e-01
4.828000000000000347e-02 4.737000000000000238e-02 2.584499999999999992e-02 8.066447239640728295e-01 -2.944277221477195061e-01 -5.124808345019645772e-01
3.797299999999999981e-02 4.834700000000000109e-02 3.145599999999999785e-02 2.737359046024266940e-01 -1.834284950316588392e-01 9.441518107496865708e-01
2.805300000000000155e-02 4.706099999999999867e-02 3.599100000000000216e-02 -6.098267128477640187e-01 7.578872234272548969e-01 -2.317721658504682536e-01
2.559499999999999970e-02 4.034599999999999992e-02 3.414999999999999980e-02 3.533818464510642410e-01 -3.043978868694705575e-01 -8.845694981561581516e-01
3.845500000000000307e-02 4.350899999999999906e-02 2.827800000000000105e-02 2.859541249860737544e-01 -5.857388659898091765e-01 7.583799966193870423e-01
3.203099999999999697e-02 4.327799999999999703e-02 2.925300000000000122e-02 4.300403750222359656e-01 -8.408466729216047542e-01 3.286976551291511672e-01
3.658100000000000240e-02 4.033500000000000280e-02 2.514399999999999968e-02 2.892222210915757485e-01 -6.657103284419245703e-01 6.878809965630685586e-01
3.019000000000000156e-02 3.932100000000000178e-02 2.684699999999999934e-02 -1.298060561666690149e-01 7.694175857996502499e-01 6.254174337550032492e-01
5.933299999999999685e-02 6.789100000000000690e-02 1.736100000000000143e-02 6.887429107614800872e-01 6.765962700130554452e-01 2.604816505633820167e-01
4.649999999999999967e-02 7.145200000000000162e-02 1.970999999999999835e-02 4.279490138589085446e-01 7.788872707658798245e-01 4.584694766023871826e-01
5.956199999999999689e-02 5.774699999999999972e-02 1.833999999999999866e-02 -9.370200412044440430e-01 3.421414096142982308e-01 7.023317028557629627e-02
5.563599999999999796e-02 4.919899999999999968e-02 1.917299999999999907e-02 -8.710774311625079092e-01 4.838443244560993173e-01 8.437285470426476863e-02
5.050000000000000322e-02 4.506399999999999989e-02 1.918100000000000013e-02 -2.857736819614559165e-01 7.017575432256094592e-01 6.525869698547080988e-01
2.299999999999999961e-02 4.780299999999999827e-02 3.977599999999999886e-02 6.311693461316449927e-01 5.709067750407423869e-01 5.250625779050828168e-01
2.238899999999999918e-02 3.885999999999999871e-02 3.879500000000000309e-02 6.937532443532733462e-01 -5.501286355489853896e-01 -4.648278394183363860e-01
-1.954499999999999987e-02 9.389999999999999736e-02 5.220500000000000140e-02 -4.526303962495927258e-01 8.916617125047063830e-01 -8.069376934509493726e-03
-2.146199999999999844e-02 1.061799999999999966e-01 4.205899999999999916e-02 -4.172161268805936463e-02 4.231277389970335978e-01 9.051089567151381354e-01
-3.102699999999999902e-02 1.039500000000000007e-01 4.122800000000000076e-02 -2.393126785278016366e-01 4.217458688239874576e-01 8.745626701533449898e-01
-2.252099999999999935e-02 9.772300000000000431e-02 4.519399999999999806e-02 -3.819945230311861395e-01 9.211838147051987225e-01 -7.416578658218805908e-02
-3.185799999999999743e-02 9.702600000000000113e-02 4.387800000000000034e-02 1.254280658864482534e-01 -2.762373178471491664e-01 9.528697416313511859e-01
-4.326200000000000184e-02 1.041200000000000042e-01 4.089099999999999679e-02 9.536193856215004205e-02 8.051346399248489050e-01 -5.853753601465913059e-01
-5.215399999999999897e-02 1.040399999999999936e-01 4.097200000000000147e-02 -2.896494092890665104e-02 3.950889573703861846e-01 9.181861183665142034e-01
-4.187500000000000250e-02 9.694400000000000239e-02 4.242400000000000337e-02 -2.052798740734685934e-01 9.138758178708440427e-01 3.506870641326401139e-01
-5.191899999999999987e-02 9.696699999999999764e-02 4.356299999999999756e-02 -1.550136863268349041e-01 3.072402062705754666e-01 9.389218352462466166e-01
-2.148900000000000116e-02 8.667199999999999904e-02 5.476700000000000318e-02 -4.582035019660474218e-01 8.579107780184896948e-01 2.324621426076954323e-01
-2.699999999999999969e-02 8.308699999999999419e-02 5.028400000000000231e-02 7.353367255598715069e-01 4.717975170505781524e-01 -4.865048848139099658e-01
-2.106999999999999845e-02 7.724899999999999822e-02 5.436499999999999666e-02 5.368943287254600572e-01 6.646840618553504498e-01 -5.195570976301936428e-01
-2.601099999999999940e-02 8.963400000000000534e-02 4.898099999999999676e-02 6.490719815355543432e-01 -6.321602414056961550e-01 4.231772583343775262e-01
-3.189299999999999774e-02 8.703500000000000125e-02 4.416899999999999993e-02 3.762724333770472440e-01 8.775520213060318264e-01 2.971893433187223210e-01
-2.562499999999999847e-02 7.489200000000000024e-02 4.710199999999999804e-02 -6.942204557913485008e-01 -7.195129945920428760e-01 1.894754269142020012e-02
-3.196999999999999842e-02 7.689999999999999614e-02 4.217699999999999921e-02 -5.163766575230794437e-02 -2.936798805112449395e-01 9.545080823432318118e-01
-4.182400000000000007e-02 8.695400000000000351e-02 4.329500000000000015e-02 -8.766550341028166160e-02 3.780571989457669480e-01 -9.215310455063533412e-01
-5.182500000000000301e-02 8.684400000000000452e-02 4.493300000000000072e-02 1.000000000000000000e+00 0.000000000000000000e+00 0.000000000000000000e+00
-4.191799999999999693e-02 7.672800000000000453e-02 4.256399999999999767e-02 1.332493923604027679e-02 -1.712331753046465455e-01 9.851404192649105829e-01
-5.184899999999999926e-02 7.687700000000000089e-02 4.299200000000000244e-02 -1.412982993227898838e-02 -3.589167147582399409e-01 9.332626317244450131e-01
-6.133899999999999769e-02 1.039299999999999946e-01 4.116399999999999920e-02 -1.284056271482375555e-01 -3.641768019553947022e-01 9.224355000942934257e-01
-7.267200000000000049e-02 1.097599999999999965e-01 4.429400000000000004e-02 -8.044949326692825142e-01 -2.224543437557086056e-01 5.507285794778256083e-01
-6.178399999999999864e-02 9.682499999999999440e-02 4.332699999999999746e-02 4.228030159157599582e-02 -2.109005025371305797e-01 -9.765927268451833898e-01
-7.005799999999999528e-02 9.620299999999999685e-02 4.139700000000000324e-02 -3.386731390346087167e-01 9.395481009603269262e-01 5.049624618016446131e-02
-8.043899999999999662e-02 1.109099999999999947e-01 4.434300000000000047e-02 -2.823880822217255115e-01 -4.856623694333497276e-01 8.272780874261815853e-01
-6.192700000000000288e-02 8.672399999999999554e-02 4.451999999999999708e-02 8.563673394403235276e-04 3.583328099216098739e-01 9.335935218116412360e-01
-7.034400000000000375e-02 8.735199999999999909e-02 4.190800000000000081e-02 -3.866589021855054709e-01 -8.929349914227966423e-01 -2.305688497032279682e-01
-6.140999999999999931e-02 7.748900000000000232e-02 4.217800000000000021e-02 -1.831416770153234952e-01 -9.763428364092855416e-01 1.149512589417181624e-01
-6.857900000000000107e-02 8.014400000000000690e-02 4.102399999999999797e-02 3.805334600699732950e-01 7.019662451991039998e-01 -6.020279697557632259e-01
-1.904499999999999943e-02 6.773200000000000054e-02 5.238799999999999707e-02 -6.109209699082970291e-01 -7.742033049684037271e-01 -1.654835674691177705e-01
-1.774200000000000083e-02 5.890900000000000303e-02 5.080900000000000000e-02 -5.807907912162973973e-01 -7.877952082717257776e-01 -2.050872172088155088e-01
-2.354799999999999949e-02 6.638199999999999656e-02 4.522600000000000231e-02 -3.080202144298039846e-01 -3.290473866233665223e-01 -8.926653151427754729e-01
-3.398999999999999938e-02 6.779499999999999416e-02 4.092900000000000010e-02 -1.462164996682390472e-01 9.505438879765395477e-01 2.740201676067142711e-01
-2.169000000000000095e-02 5.654900000000000204e-02 4.516400000000000275e-02 -7.671617924018012125e-02 1.602183393630957423e-02 9.969242341723395517e-01
-3.611099999999999727e-02 6.070600000000000301e-02 4.040699999999999847e-02 3.730916971924679026e-02 -2.652212288975338006e-01 9.634654771173394305e-01
-4.123099999999999682e-02 6.695099999999999663e-02 4.139199999999999824e-02 -6.945543508074626671e-02 -1.653250442303342282e-01 9.837904107521999730e-01
-4.858799999999999925e-02 7.095600000000000518e-02 4.035699999999999704e-02 -2.114126452305746806e-01 -9.757257008756790029e-01 -5.713186577800555277e-02
-4.030000000000000249e-02 5.946499999999999703e-02 4.044600000000000278e-02 -1.293807505756799925e-01 -1.441252231207281742e-01 9.810650036775717675e-01
-2.191999999999999851e-02 4.496499999999999803e-02 5.225799999999999890e-02 -6.761897922099291414e-02 4.170369556774508601e-01 9.063707029954104488e-01
-2.918700000000000114e-02 4.358499999999999874e-02 5.108800000000000147e-02 3.301395908029036014e-02 4.761731298801838985e-01 -8.787316023029753120e-01
-2.191900000000000098e-02 3.982600000000000029e-02 5.352099999999999913e-02 -1.156865794065861826e-02 1.147845759219601608e-01 9.933230427629612391e-01
-3.033100000000000032e-02 3.974899999999999961e-02 5.213299999999999879e-02 1.914422762676535050e-01 -2.435271564441569558e-01 -9.508124835800605412e-01
-2.199800000000000019e-02 4.984700000000000242e-02 4.672500000000000264e-02 -3.994812395113203074e-01 9.120815382556280992e-01 -9.231471633356359840e-02
-3.191100000000000186e-02 4.684800000000000075e-02 4.518699999999999800e-02 -6.623668198561740716e-01 7.332748072176692444e-01 1.535521183621663122e-01
-3.527600000000000180e-02 3.975299999999999667e-02 4.752900000000000180e-02 2.361282007520081050e-01 -5.151305362783564767e-01 -8.239441749312825802e-01
-4.201599999999999779e-02 4.482300000000000173e-02 4.159399999999999903e-02 -9.227753186434608512e-01 -1.972204054696265751e-01 3.310435363647133422e-01
-5.194000000000000006e-02 4.470699999999999674e-02 4.349800000000000194e-02 -6.727691763359059385e-01 9.315321060454506696e-02 7.339646549571525735e-01
-4.192799999999999999e-02 3.932700000000000085e-02 4.358200000000000268e-02 -5.784704252445764805e-01 9.474489971568834934e-03 8.156483317932657906e-01
-5.185700000000000032e-02 3.925200000000000217e-02 4.621200000000000307e-02 1.026014336238223607e-01 -3.842148943283414386e-01 -9.175248556821760104e-01
-5.945299999999999890e-02 4.424000000000000155e-02 4.286199999999999732e-02 -7.663717939766646892e-03 4.633968806824259601e-01 -8.861177113686063977e-01
-6.076499999999999957e-02 3.908699999999999675e-02 4.436299999999999966e-02 1.819914890527742635e-01 -3.680929877742956102e-01 9.118040635266689842e-01
-2.427299999999999944e-02 1.103800000000000059e-01 3.912899999999999712e-02 1.265161646637101012e-01 -5.674381021459031782e-01 8.136385317275974804e-01
-3.237899999999999806e-02 1.087800000000000017e-01 3.795199999999999962e-02 -1.102861551748713087e-01 9.925101483407362535e-01 5.254112120419628801e-02
-4.115200000000000108e-02 1.085300000000000015e-01 3.796900000000000275e-02 -7.630522001208825400e-02 -5.625571512855184197e-01 8.232295943030895069e-01
-5.169800000000000090e-02 1.090600000000000042e-01 3.825800000000000034e-02 4.462914850352082130e-01 3.566254488741563144e-01 8.207570892781728134e-01
-6.209100000000000036e-02 1.087700000000000056e-01 3.827400000000000246e-02 1.216683495425571054e-02 -3.977693137570907367e-01 9.174047858826598345e-01
-7.165499999999999647e-02 1.059599999999999986e-01 3.751600000000000074e-02 3.366696698954124711e-01 -5.203367353883258106e-01 7.847950147509439311e-01
-7.463400000000000589e-02 9.774599999999999955e-02 3.834699999999999914e-02 5.881748190329935122e-01 -7.725022580281966089e-01 2.393546398063831071e-01
-7.911999999999999589e-02 1.050800000000000067e-01 3.230800000000000338e-02 -6.190487623826675112e-02 2.941333844775664841e-01 -9.537574840774236673e-01
-8.020299999999999652e-02 9.675799999999999679e-02 3.359199999999999686e-02 -7.043089366065883317e-01 7.083295105988230977e-01 -4.709804912019748685e-02
-8.377999999999999337e-02 1.056799999999999962e-01 2.598500000000000115e-02 2.090134146992716213e-01 3.175562508395190497e-01 -9.249169800736164460e-01
-8.729199999999999460e-02 1.031399999999999956e-01 2.082499999999999976e-02 -8.850426897274732418e-01 4.624315624885742548e-01 5.344611655055370170e-02
-8.520999999999999408e-02 9.707899999999999863e-02 2.781000000000000139e-02 8.397344731232515569e-01 -4.593091607128541032e-01 -2.896223567573275592e-01
-8.808199999999999363e-02 9.645600000000000007e-02 2.298499999999999849e-02 -9.306622927159116099e-01 3.517516708928360436e-01 -1.006899147922015320e-01
-7.516000000000000458e-02 8.604000000000000536e-02 3.881600000000000328e-02 -5.353380683088564823e-02 2.809169675794125354e-01 9.582378560942895751e-01
-6.457699999999999552e-02 7.345500000000000640e-02 3.896999999999999770e-02 -3.604822323335366563e-01 -9.282687300809477904e-01 -9.148620073942589914e-02
-7.227899999999999603e-02 7.641599999999999782e-02 3.641300000000000092e-02 5.303170953583781211e-01 7.590624783200095038e-01 -3.776081730806920556e-01
-7.637499999999999845e-02 7.256300000000000250e-02 2.872999999999999859e-02 -6.395021001471613564e-01 -7.484257681531928386e-01 1.757723910961929703e-01
-8.003100000000000491e-02 8.707600000000000062e-02 3.429000000000000103e-02 -7.766368440100105408e-01 -6.154963614091374380e-01 -1.341619976680551163e-01
-7.891900000000000304e-02 7.937099999999999711e-02 3.247699999999999892e-02 -7.020932074867398676e-01 -7.061484273645896037e-01 9.175797802642784995e-02
-8.483400000000000662e-02 8.668599999999999917e-02 2.697400000000000145e-02 -8.600123630425593121e-03 4.299635306951019587e-01 9.028052947040923204e-01
-8.789099999999999691e-02 8.923300000000000676e-02 2.261099999999999915e-02 -8.862013128143439999e-01 -4.607676752587323565e-01 4.837750099784749597e-02
-8.104799999999999505e-02 7.716900000000000148e-02 2.582900000000000126e-02 -2.414750177641152573e-01 5.330874050478733306e-01 8.108684445550612407e-01
-8.639299999999999757e-02 1.078400000000000053e-01 1.863499999999999879e-02 5.914150091827944378e-01 -2.547810339924726497e-01 -7.650587635149613819e-01
-8.767199999999999993e-02 1.049199999999999994e-01 1.726400000000000157e-02 5.914150091827944378e-01 -2.547810339924726497e-01 -7.650587635149613819e-01
-8.933299999999999574e-02 9.848300000000000110e-02 1.761000000000000065e-02 9.874289870785328826e-01 -1.495002745372173147e-01 5.131923021986253136e-02
-8.637499999999999345e-02 8.306700000000000195e-02 1.860699999999999854e-02 8.754787171818659841e-01 4.348211030731470306e-01 -2.108734788536622551e-01
-8.917899999999999439e-02 8.918600000000000139e-02 1.894699999999999857e-02 9.569221701349623910e-01 1.565534912401364553e-01 2.445219104389596831e-01
-8.287899999999999434e-02 7.610899999999999610e-02 1.779400000000000079e-02 -8.455742534480907846e-01 -5.136616813171679397e-01 1.454505381637501149e-01
-8.250000000000000389e-02 7.467400000000000426e-02 7.117499999999999695e-03 1.000000000000000000e+00 0.000000000000000000e+00 0.000000000000000000e+00
-2.643699999999999870e-02 6.414100000000000357e-02 3.932100000000000178e-02 -3.722782223850219507e-01 -9.274700907511752579e-01 3.475853707874577286e-02
-3.003499999999999920e-02 6.612999999999999434e-02 3.894199999999999745e-02 3.421930218491045506e-01 -1.157299404255227038e-01 9.324754777938576433e-01
-2.613100000000000145e-02 5.653099999999999792e-02 3.888199999999999990e-02 6.076889230680246889e-01 7.696566644866006390e-01 1.958131547975888176e-01
-3.166399999999999770e-02 5.665699999999999903e-02 3.774199999999999777e-02 -1.078549314537671083e-02 -1.523324759804984274e-01 9.882704538228702651e-01
-4.571599999999999969e-02 6.454100000000000115e-02 3.916599999999999943e-02 4.426594029477139980e-01 8.039389618224918044e-01 -3.971584049793580040e-01
-5.195899999999999824e-02 6.686899999999999789e-02 3.673300000000000176e-02 -5.104829765717292522e-01 5.310032527569814587e-01 6.763450866177509457e-01
-4.255699999999999761e-02 5.554499999999999715e-02 3.902599999999999819e-02 4.045012434674718493e-01 -8.310374516325688132e-01 -3.817793839605739814e-01
-4.940599999999999853e-02 5.689199999999999813e-02 3.434399999999999953e-02 -7.525730920168450799e-01 6.580547998110135577e-01 2.444630069953513535e-02
-5.550000000000000072e-02 6.239100000000000201e-02 2.949799999999999991e-02 -2.201200394583726488e-02 5.440432354418661687e-01 8.387684004850407549e-01
-5.374999999999999917e-02 5.857400000000000106e-02 2.631299999999999958e-02 -4.514230367413422651e-01 -1.711890619860926832e-01 8.757348611055441046e-01
-3.406000000000000000e-02 5.013700000000000101e-02 3.857700000000000018e-02 2.843287769777089746e-01 -7.993371899872724340e-01 -5.293554602397250175e-01
-4.174100000000000033e-02 4.959000000000000213e-02 3.928999999999999854e-02 1.780913092166355391e-02 -2.356668077986871224e-01 -9.716707212619877243e-01
-5.097499999999999948e-02 4.943499999999999978e-02 3.696499999999999786e-02 -3.813732846691189060e-01 8.946911554054836069e-01 2.325557012414194991e-01
-5.299999999999999850e-02 5.106499999999999928e-02 2.920899999999999885e-02 5.985051676654993269e-01 -2.058629674010237220e-01 7.742170257302131153e-01
-5.414499999999999869e-02 5.456799999999999845e-02 1.225700000000000053e-02 3.432562598892386352e-01 -1.082020575404019358e-01 9.329884537285950685e-01
-5.584800000000000181e-02 5.417000000000000287e-02 8.327199999999999880e-03 -7.432803027246562833e-01 6.687545209249339262e-01 -1.737188314504800254e-02
-5.484399999999999692e-02 4.929499999999999854e-02 1.146199999999999997e-02 -7.842750310257828872e-01 5.883721527437355547e-01 -1.968016401994898135e-01
-5.614999999999999852e-02 5.061899999999999733e-02 9.292899999999999772e-03 -7.842750310257828872e-01 5.883721527437355547e-01 -1.968016401994898135e-01
-6.145099999999999868e-02 6.825699999999999823e-02 3.537599999999999772e-02 -2.730207824110417181e-01 -9.612399626175058831e-01 -3.843678757074190516e-02
-6.972499999999999531e-02 6.995800000000000629e-02 3.278799999999999770e-02 4.536971473046690906e-01 7.085177999672166438e-01 -5.405195885971392222e-01
-6.282300000000000384e-02 6.332200000000000328e-02 2.688600000000000018e-02 -8.555051639054541690e-01 -2.319094432179295284e-01 -4.629567200910378877e-01
-7.103700000000000292e-02 6.678699999999999914e-02 2.522800000000000042e-02 5.371877584352997559e-01 6.153814616107506907e-01 5.768318376208740883e-01
-6.085700000000000137e-02 6.056799999999999684e-02 2.264299999999999993e-02 -5.985526899932179790e-01 -6.715122976385430320e-01 -4.368133599400179090e-01
-6.700000000000000400e-02 6.155800000000000161e-02 2.010899999999999840e-02 -4.386486601132658647e-01 -8.189109298744901011e-01 3.700976113310305293e-01
-7.820000000000000562e-02 7.127899999999999514e-02 2.103199999999999861e-02 6.970736428249918459e-01 6.986352801047668315e-01 1.612361059801128149e-01
-6.211599999999999761e-02 4.514499999999999763e-02 3.780200000000000227e-02 7.414133083385634482e-01 -5.670452638989488259e-01 -3.588397621616611910e-01
-6.547300000000000342e-02 3.951299999999999951e-02 3.796399999999999775e-02 3.801174255286577930e-01 -3.458048249887535897e-01 -8.578634890377155875e-01
-6.725000000000000422e-02 3.742000000000000187e-02 3.341299999999999826e-02 3.937859018683064760e-01 -7.712295089878886678e-01 -4.999212187926795892e-01
-7.270200000000000273e-02 6.500799999999999634e-02 1.870099999999999887e-02 -6.295028792334673717e-01 -7.280603613135652186e-01 2.713931379396599120e-01
-6.144999999999999768e-02 5.916500000000000231e-02 1.873100000000000112e-02 -8.111168060192767149e-01 -4.328589108868821644e-01 -3.933480523136083651e-01
-6.750000000000000444e-02 6.147899999999999893e-02 1.922099999999999850e-02 -4.386486601132658647e-01 -8.189109298744901011e-01 3.700976113310305293e-01
-5.741099999999999676e-02 5.411400000000000238e-02 3.825700000000000021e-03 -7.432803027246562833e-01 6.687545209249339262e-01 -1.737188314504800254e-02
-7.922200000000000075e-02 7.065399999999999459e-02 1.773500000000000076e-02 -7.323889141942623304e-01 -6.526046275278599706e-01 1.942000991106143104e-01
-6.247300000000000075e-02 4.467999999999999750e-02 1.111000000000000008e-02 -6.107670083892459134e-01 6.580036661688215549e-01 -4.404484496188413312e-01
-6.725000000000000422e-02 4.225799999999999695e-02 1.041399999999999965e-02 1.691186971029339792e-01 -8.078346268870523206e-01 5.646256121470788480e-01
-6.638900000000000357e-02 4.051500000000000240e-02 1.315999999999999982e-02 -5.396050079836341995e-01 5.752545773323148870e-01 -6.147427157902745076e-01
-6.835900000000000309e-02 3.850200000000000150e-02 1.195799999999999988e-02 -5.396050079836341995e-01 5.752545773323148870e-01 -6.147427157902745076e-01
-6.138099999999999806e-02 4.748000000000000137e-02 7.607000000000000046e-03 1.210816643977889601e-01 -7.964325185656888628e-01 5.924816232743215227e-01
-6.855899999999999495e-02 4.354899999999999743e-02 8.157599999999999227e-03 1.691186971029339792e-01 -8.078346268870523206e-01 5.646256121470788480e-01
-7.092900000000000593e-02 3.982999999999999735e-02 8.588800000000000601e-03 6.578056240652432329e-01 -6.297230956722501549e-01 4.132076762659353530e-01
-1.662500000000000089e-02 1.837499999999999967e-01 -1.973499999999999907e-02 6.785597574040576063e-01 2.114878923522555965e-01 -7.034412036696080506e-01
-1.519799999999999970e-02 1.747100000000000042e-01 -1.886799999999999936e-02 6.266484511831598159e-01 6.193227620830060731e-01 4.730232922337163082e-01
-1.594399999999999984e-02 1.626400000000000068e-01 -9.103699999999999293e-03 6.803714164788904339e-01 -1.684520011776713677e-01 7.132451604727128025e-01
-1.597700000000000162e-02 1.607000000000000095e-01 -8.807199999999999404e-03 6.533759262340520513e-01 -2.252293902017259986e-01 7.227528075401391527e-01
-1.325100000000000063e-02 1.670800000000000063e-01 -1.526399999999999979e-02 6.831933822963192071e-01 2.185170544482200050e-01 6.967762189554039809e-01
-1.429199999999999915e-02 1.609800000000000120e-01 -1.125199999999999985e-02 6.103582571999642825e-01 -3.183951150766023419e-01 7.253187909899896368e-01
-1.398600000000000017e-02 1.839999999999999969e-01 -2.373899999999999968e-02 8.110493244401897339e-01 2.948925578336107356e-01 -5.052102262023822066e-01
-1.163299999999999924e-02 1.769900000000000084e-01 -2.334900000000000170e-02 9.295443240034120258e-01 2.965881133717016005e-01 -2.190498589811326058e-01
-9.102900000000000574e-03 1.698800000000000032e-01 -2.145700000000000038e-02 -6.240995345106449266e-01 -7.797647714358517668e-01 -4.966560430711032537e-02
-2.556200000000000139e-02 1.827300000000000035e-01 -9.624699999999999922e-03 -3.458430397149562796e-01 2.234683862141026781e-02 9.380262313412924824e-01
-2.724999999999999992e-02 1.825400000000000078e-01 -9.438399999999999568e-03 -3.458430397149562796e-01 2.234683862141026781e-02 9.380262313412924824e-01
-2.573599999999999846e-02 1.794800000000000006e-01 -8.965300000000000699e-03 -7.750251275035047183e-01 9.080478701583755141e-02 6.253723230150057821e-01
-3.121600000000000069e-02 1.758899999999999908e-01 -5.115399999999999982e-03 -5.398962640187447981e-01 1.320193267326312363e-02 8.416280253605462613e-01
-2.039900000000000047e-02 1.844999999999999973e-01 -1.494299999999999969e-02 1.364007326632166450e-01 1.763707825673270502e-02 9.904967307364035412e-01
-2.133900000000000033e-02 1.764499999999999957e-01 -1.456600000000000082e-02 6.264566342351940431e-01 7.011235776021959021e-01 3.405551561098578706e-01
-2.712499999999999981e-02 1.723399999999999932e-01 -1.015600000000000010e-02 -6.038191517962891997e-01 -7.668573572671871785e-01 -2.175597056653557348e-01
-3.939000000000000140e-02 1.733000000000000096e-01 -2.357499999999999787e-03 -4.339915154698758548e-01 5.756442797703064107e-01 6.930259935008825645e-01
-2.287600000000000050e-02 1.640600000000000114e-01 -7.810300000000000055e-03 4.688787687801181103e-02 -6.723451742663022479e-01 7.387513070328121101e-01
-3.159700000000000009e-02 1.665099999999999913e-01 -4.929199999999999901e-03 6.247921647084138108e-01 7.261769928466326185e-01 2.868827739324830151e-01
-2.259999999999999856e-02 1.591200000000000114e-01 -3.798999999999999860e-03 4.758822414356095876e-01 -3.752970399437822180e-01 7.954170127019254410e-01
-3.037199999999999969e-02 1.576700000000000046e-01 -1.267200000000000010e-03 3.223659870631315760e-01 7.295805474683642045e-02 9.437993921551182108e-01
-2.115799999999999972e-02 1.684900000000000009e-01 -1.238299999999999991e-02 4.049570125769433315e-01 7.610020797444310148e-01 -5.068388822785877545e-01
-2.699999999999999969e-02 1.711999999999999911e-01 -1.021999999999999992e-02 -6.038191517962891997e-01 -7.668573572671871785e-01 -2.175597056653557348e-01
-4.171899999999999914e-02 1.681300000000000017e-01 -7.495800000000000162e-04 -8.906762228327283482e-02 1.474404057500732779e-01 9.850524277484208335e-01
-4.825000000000000122e-02 1.674799999999999900e-01 -1.519100000000000008e-04 -2.815871990338398301e-01 8.063699779312100135e-01 5.200731756507891435e-01
-3.724999999999999839e-02 1.614700000000000024e-01 -7.262799999999999649e-05 4.722819827626016931e-01 7.156863531001651513e-01 5.145316051944827107e-01
-6.642900000000000194e-02 1.578299999999999981e-01 -8.567299999999999915e-03 -6.735616341946208951e-01 -6.403402098701758138e-01 -3.691600473568220075e-01
-7.128400000000000014e-02 1.583900000000000030e-01 -5.997999999999999859e-03 -6.735616341946208951e-01 -6.403402098701758138e-01 -3.691600473568220075e-01
-6.597899999999999598e-02 1.628799999999999970e-01 -1.779199999999999879e-02 -8.401645466341133295e-01 3.079318701921860968e-01 4.464319633483220251e-01
-7.162300000000000610e-02 1.638400000000000134e-01 -1.575999999999999970e-02 2.714841053846257513e-01 -7.709611860806214745e-01 -5.761208467679943546e-01
-6.606800000000000173e-02 1.605100000000000138e-01 -1.356699999999999920e-02 -8.800858931145262298e-01 -8.493204138172430473e-02 -4.671566857998931122e-01
-7.330699999999999716e-02 1.604899999999999938e-01 -1.183200000000000050e-02 7.261389323690183861e-01 -5.571732032488234676e-01 -4.028402567760921982e-01
