3.014481176720089639e-01 3.240541079817734982e+00 6.142112078967805644e+00 -2.787599475631900581e-01 -2.303061613204761826e-01 9.323368295269658379e-01
2.465561895084700250e-01 3.572549500557725466e+00 5.883843992558925429e+00 9.527813049021887082e-01 -3.457242181457131913e-02 -3.016828345775705578e-01
2.548947517638124882e-01 3.809783384254397109e+00 5.843058664374939148e+00 6.236023288618338656e-01 -1.147959684745632550e-02 7.816574405033942519e-01
2.494652305431528938e-01 2.934333498809011953e+00 5.978997255163132962e+00 3.651879303405207444e-02 -4.646323255484038212e-02 9.982522455651632320e-01
3.060041657788702407e-01 3.213093967470170398e+00 6.117619469182415060e+00 -2.787599475631900581e-01 -2.303061613204761826e-01 9.323368295269658379e-01
3.042831022594215118e-01 3.281157997979952334e+00 6.139709578136451462e+00 -2.120484076744859059e-01 -2.161848506889622878e-01 9.530475240696584249e-01
3.268040247106027696e-01 3.872661223642688277e+00 5.819351864093823323e+00 5.743050513808728441e-01 -7.526594211547652513e-01 -3.219899124279921310e-01
2.809517071536595245e-01 3.849407387682195480e+00 5.865866487363852855e+00 3.952821177773102046e-01 -8.919403555025539054e-01 2.195323429280118532e-01
1.441090135029876040e-01 3.163053263344913990e+00 6.035077198110720964e+00 2.740450118103278654e-01 -9.440944652599321252e-01 -1.832620314397944428e-01
3.522524492768056015e-01 3.351146619471376820e+00 5.823052255398991406e+00 -4.042362090160643573e-02 -4.038638765522145624e-01 9.139255440622177096e-01
2.866068749011531080e-01 3.279842782644362131e+00 6.149938191094358686e+00 -2.787599475631900581e-01 -2.303061613204761826e-01 9.323368295269658379e-01
1.180151181864034504e-01 3.459156088217418823e+00 6.040569181252108066e+00 -2.538485083562483924e-01 -9.592899658317991518e-01 1.237889181620609180e-01
8.284325103813199032e-02 3.004831764967429653e+00 5.872680901199356818e+00 -8.996149336690326681e-01 -3.573349654630846306e-01 2.510073576155850694e-01
-1.690167572027108656e-01 3.590458643669636629e+00 5.774992341752769320e+00 6.626320198139301620e-02 7.136696274434238541e-02 9.952466752980492215e-01
2.157595501817877737e-01 3.703856789130687943e+00 6.054489152544491937e+00 6.528030346532787132e-02 -9.092914286695537307e-02 9.937154386226249025e-01
3.166562350648330915e-01 3.858097591736931786e+00 5.854148097649381377e+00 8.226352654717661306e-01 -4.190794238825095164e-01 -3.842442666852700084e-01
2.644820029690885255e-01 2.843714904864158566e+00 5.955438529747177689e+00 3.076429931634105386e-01 1.963838074564074609e-01 9.310151389351210005e-01
-2.575335797324598275e-01 3.474173912672899434e+00 5.716355132795473359e+00 4.701288602251282867e-01 3.983036675527849152e-02 8.816985860641728401e-01
-2.436943476648823215e-01 3.521749899292085928e+00 5.732244295865597472e+00 -3.139239808560940759e-01 -2.385439249664807471e-01 9.189932154836883971e-01
1.718100182231741546e-01 3.445381600234494801e+00 5.991357189513337289e+00 5.067455262874670519e-01 -7.690031640267348534e-01 -3.896705086409638086e-01
-1.530783818119432482e-01 3.626790282640185659e+00 5.760845336279196260e+00 3.747070563795014929e-03 1.637198841412250971e-01 9.864997511398437835e-01
-1.861341961242479748e-01 3.640827289760729890e+00 5.763587827803391406e+00 4.810528037504194915e-02 6.860971539110609363e-02 9.964831102201332502e-01
-1.488337312041697336e-01 3.712648773356765464e+00 5.781101332633075351e+00 -3.019490621954844523e-01 -1.571073591711215078e-01 9.402893392640074843e-01
3.070270821615185830e-01 3.848713425208482697e+00 5.800150342389026825e+00 6.742021104173506751e-01 -7.315711777302367214e-01 1.012675971038339562e-01
2.793053755624798629e-01 3.875508776188746562e+00 5.901492517298701834e+00 4.164878324567412582e-01 -8.809312097723734913e-01 2.247177987264641075e-01
1.910573324773777726e-01 3.738987733227522536e+00 6.083940712202070777e+00 1.970975130687244725e-01 8.464597017378326649e-02 9.767229034252565834e-01
2.008537016272325393e-01 3.783755778684138704e+00 6.084873679604002383e+00 2.611981949837175465e-01 1.400051305389293232e-01 9.550780420258991876e-01
2.493206176010198116e-01 2.832224941449860367e+00 5.967036039980550655e+00 2.916099512452599574e-01 -9.239819814007274035e-01 2.474286450302853879e-01
2.808135577510822989e-01 2.849308466690041453e+00 5.960701537811465833e+00 2.975238426610762876e-01 -3.963153682677233447e-01 8.685699119374360455e-01
1.719232092023379177e-01 3.030838673224256041e+00 5.961458149734079726e+00 -7.989405602472489099e-01 -5.046607198785726389e-01 3.271261820818588406e-01
1.327438718358351921e-01 3.040378618374798947e+00 5.958770019353956116e+00 -8.067409019053888297e-01 -5.869081823313695434e-01 -6.861415819907358549e-02
2.886174873933339269e-01 3.335788100110651744e+00 5.823068969172629394e+00 1.228878717433289358e-01 -6.713491734794087007e-01 7.308822464986476364e-01
1.421067436224607017e-01 3.188042095693071065e+00 6.047134910808940944e+00 7.351154118468457010e-01 -5.505947444889260911e-01 -3.955385677862738869e-01
1.579200233483832871e-01 3.202087894997511786e+00 6.056634943954649408e+00 6.577735224918394019e-01 -5.980991095634650145e-01 -4.578334284956351308e-01
4.868912669548902845e-03 3.323673397833911469e+00 5.844834061375602019e+00 9.984948751573171633e-01 5.482384211593339246e-02 1.526636898750992300e-03
3.223780007837912659e-02 3.327819755356145492e+00 5.883890466797654817e+00 9.909832228091101092e-01 1.128631336264396406e-01 7.220917655596037488e-02
-1.878403793644182682e-02 3.428812926521556559e+00 5.831329786748058019e+00 6.807487597661420198e-01 -7.060526670050752962e-01 1.951172916270620672e-01
-2.261934353900248995e-01 3.482222482702443056e+00 5.722031319893987167e+00 4.209347219825978481e-01 -1.713921214883490918e-01 8.907517614471249789e-01
-2.300634631831139365e-01 3.507809527490526769e+00 5.736040352958412747e+00 -3.207788111898766670e-01 -2.390520321580339447e-01 9.164906329105191318e-01
7.490127624374243176e-02 3.386763562783069670e+00 5.976039516599949586e+00 -8.448277557520718073e-01 -5.200877570597347566e-01 -1.255977231779776271e-01
1.464559087292400807e-01 3.555992234024029752e+00 6.063784536235288236e+00 1.907379854879127923e-01 5.119175468687238439e-02 9.803052714048271499e-01
-5.880951458158398260e-02 3.777499141434443874e+00 5.822237808266560677e+00 4.058375042786668274e-01 3.781823384012664713e-01 8.320300709963630581e-01
1.886326524451629461e-01 3.686243509107401728e+00 6.076978614492075437e+00 1.098838710599517321e-01 9.463144564976633255e-02 9.894293427906388771e-01
1.803164197783327372e-01 3.710647537778242633e+00 6.085274299410874832e+00 8.725421742036534867e-02 6.630134199035279952e-02 9.939772802195420143e-01
2.929493389406779835e-01 3.812130637207340467e+00 6.069253694439075808e+00 3.130120291338259753e-01 -9.318775561712836497e-01 1.833785426972328880e-01
2.588310706216448431e-01 2.847592478852553732e+00 5.969672915920237521e+00 -1.518001163736048542e-01 -9.833610101059074848e-01 9.978901979902045360e-02
3.008833784155804936e-01 3.010766107555800097e+00 5.962507362822762502e+00 7.796220775494542288e-01 -4.894290208217784155e-01 3.907027639714207856e-01
2.010416115456419364e-02 3.168229304051731088e+00 5.855468201665129158e+00 9.034237406251773850e-01 -4.284675160912844727e-01 1.552844259342302594e-02
1.371390219996532767e-01 3.155190641944888075e+00 6.033459839355162835e+00 6.960978614414234933e-01 -3.645441828755091040e-01 6.185105545003293237e-01
1.344711780593776662e-01 3.168775367753309702e+00 6.041498671473528148e+00 7.817121321677594770e-01 -9.623315927754221011e-02 6.161698803716380013e-01
8.481566559298456265e-02 3.413307777374169127e+00 5.989702691418281155e+00 -6.928281288601999544e-01 -7.156582368899138125e-01 8.844473885819348347e-02
-1.875205682601944202e-01 3.576230779188532161e+00 5.762343334038070530e+00 1.262483904817598979e-01 1.167941478470208294e-01 9.850992188249126924e-01
1.743527336889487411e-01 3.624162894129907997e+00 6.074181979146445975e+00 1.076711619740712972e-01 1.594010147956512469e-01 9.813247359367183176e-01
5.025702711173638676e-02 3.712154999995258997e+00 5.918021789219085171e+00 9.591934049296001463e-01 1.706225348147807075e-01 2.254683182909281158e-01
-5.856287412633215395e-02 3.810377487166577648e+00 5.836283719991441465e+00 -1.156610350359166539e-01 -2.172923628220769787e-01 9.692298767751740263e-01
3.333242827314457646e-01 2.913548693740193318e+00 5.977106387211389205e+00 -6.133320493155711844e-02 5.926392136121970411e-02 9.963563747965457074e-01
1.283877759821793751e-01 3.066353219537577779e+00 5.956545542423931749e+00 -9.035531372974577868e-01 -3.389888083218285386e-01 -2.620654802000219052e-01
1.459369274193043631e-01 3.073627534316959675e+00 5.964248306939019528e+00 8.198704588558616835e-02 5.427469779396109084e-01 8.358850652119431679e-01
2.328712909717732538e-01 3.213191320205909474e+00 6.104973737732532157e+00 -4.661800504931779554e-01 5.258081909625351297e-02 8.831259355184543081e-01
-8.269512696301091134e-03 3.286786221257589791e+00 5.840184582537470526e+00 -9.232132526796138494e-01 -3.717682042158158007e-01 9.729179004867367919e-02
-2.121310730356997520e-01 3.498966940445144225e+00 5.736836571685571151e+00 3.338521297339786531e-01 1.970103333221699948e-01 9.218078346577306403e-01
1.823499825034944830e-02 3.753034994302449689e+00 5.885085057191131952e+00 -7.546949143217362987e-01 -5.537052473776790107e-01 -3.519177252190208716e-01
-7.534804332591721332e-02 3.799658198041698576e+00 5.818537387252336046e+00 9.713890412173871447e-02 2.810896158562124492e-01 9.547526701527651039e-01
-1.692669771755322405e-01 3.526283172339613969e+00 5.730044399391261756e+00 2.128244133886660616e-01 2.164852647406281250e-01 9.528063282829047909e-01
-2.095696282897725193e-01 3.512301095990292055e+00 5.744656984098497787e+00 2.822733110988898675e-01 1.932552786152839097e-01 9.396670554662424069e-01
-1.257916668769074042e-01 3.766940709176737290e+00 5.797098403268065248e+00 -4.104574170263617927e-01 4.042074885580982518e-02 9.109834641034835201e-01
1.097336432860967076e-01 3.372508558114699628e+00 5.990270777317289408e+00 4.431864050410911360e-01 -8.347722305701038570e-01 -3.267126160033722582e-01
-2.205165693214378442e-01 3.499877096648426278e+00 5.740256361151209852e+00 3.745892906499458941e-01 5.865228770540405201e-02 9.253338708149035918e-01
-2.758826861353316090e-02 3.814663430352524642e+00 5.858094503479598814e+00 3.859466392668998713e-01 2.892818475065628281e-01 8.759915549488905828e-01
1.417727411017098982e-01 3.029466732401037365e+00 5.953792020553807518e+00 -8.315660763169682168e-01 -5.376440279011650558e-01 1.394157809611728249e-01
-1.690381817558482269e-01 3.590478499906814669e+00 5.774973091194255836e+00 6.626320198139301620e-02 7.136696274434238541e-02 9.952466752980492215e-01
-1.295673216555164042e-02 3.711835729425871033e+00 5.823557570877806455e+00 -8.218323365562629768e-01 -5.580628744056946866e-01 1.147058795377419588e-01
1.860320793408866136e-01 2.863866531889651235e+00 5.908240939645323486e+00 -7.354367180898726541e-01 -6.060218813837661145e-01 -3.031011596303745392e-01
1.570243164513364931e-01 2.974939363568805728e+00 5.956634335589304108e+00 -7.807824567325929443e-01 -6.247392033579370896e-01 8.926536075460815220e-03
1.721714934392270802e-01 3.041273953868497415e+00 5.962082375897669984e+00 -8.507489535765286881e-01 -3.720409811004360412e-01 -3.712300181427506951e-01
4.253669221064481504e-02 3.252527097924170274e+00 5.896027495724553091e+00 -9.455588690183330813e-01 -3.254461582306732437e-01 1.795358924111812400e-03
2.186917104629581415e-02 3.392574751264264776e+00 5.882205512882636711e+00 -9.737483697860122023e-01 -2.236255361040780931e-01 4.249390475406381734e-02
-1.920621377808046201e-05 3.776261500397460669e+00 5.870954785524579833e+00 -7.346268169743049858e-01 -6.778210722875355199e-01 -2.969905293400384311e-02
1.676652259159307767e-01 3.002378005389670701e+00 5.962120013467247404e+00 -7.741055026256281613e-01 -6.309245001851132573e-01 -5.191286806648885005e-02
1.328932880565166785e-01 3.199531879940606061e+00 6.050785463364192651e+00 -7.421300115193695257e-01 -6.126757767224978446e-01 -2.717930069367943680e-01
-8.989036726350616013e-02 3.816646509944532362e+00 5.823920831759640038e+00 -4.376634262765157213e-01 1.535726580925934892e-01 8.859267260819464473e-01
1.280582966485779572e-01 2.972542732869541737e+00 5.884733880398487216e+00 -3.957885338694660526e-01 -6.925597379167713896e-01 6.030857699151184192e-01
1.750426781326237802e-01 2.990778549074666781e+00 5.962664715729149911e+00 -6.894301415201191663e-01 -7.124855676422475748e-01 -1.305771644088360717e-01
2.743422239340804758e-01 3.193871110721823392e+00 6.131975081691047436e+00 -2.787599475631900581e-01 -2.303061613204761826e-01 9.323368295269658379e-01
1.569869561399721281e-01 3.228998712018928519e+00 6.078500429141247885e+00 6.135013501531095814e-01 -3.707222371356928003e-01 6.972668902604066687e-01
1.008133361797973193e-01 3.327109674900121217e+00 5.983240708386524886e+00 -6.999262146922012873e-01 -7.131891850918328224e-01 -3.826852825356238941e-02
-2.475680124762094925e-01 3.452419033801976234e+00 5.703186359453762400e+00 4.825247566608724115e-01 -3.123502038476639805e-02 8.753252153976424088e-01
6.668960425208571297e-02 3.700151895609780084e+00 5.928220732544992266e+00 -7.906376671471999629e-01 -5.975946992226662813e-01 -1.333141205911981542e-01
1.621146223773375084e-01 2.975018447602382210e+00 5.958283373858058951e+00 -6.620979468578459537e-01 -7.311485935279167236e-01 -1.644628923154824451e-01
1.385676909153951142e-01 2.983626069893073662e+00 5.943196731275028455e+00 -7.312567775662696112e-01 -6.586911412968777801e-01 1.771708374434445843e-01
2.749340851083593718e-01 3.807182050265632611e+00 6.120063590305716339e+00 6.890618367976106273e-02 -9.593388244060976344e-01 -2.737169301263957522e-01
2.105457412972352726e-01 3.828510548813312653e+00 6.143738825223477917e+00 -2.890783903106127206e-01 -7.745082050358846892e-01 5.626461806388783904e-01
1.281661043544655987e-01 3.030765378689950662e+00 5.947427846359946813e+00 -8.400495196968735812e-01 -4.942063937788231387e-01 -2.237785619874760323e-01
1.045393085844617820e-01 3.548905470727663047e+00 6.050044806920139351e+00 -4.006995094292505333e-01 -1.887666023406704974e-01 8.965528835400157215e-01
-2.107824967810652539e-01 3.484532416623167261e+00 5.729934935455403000e+00 4.209347219825978481e-01 -1.713921214883490918e-01 8.907517614471249789e-01
7.989994012712652374e-03 3.652882112434027828e+00 5.863813305249369279e+00 -9.844692224750942744e-01 -1.222850575977190851e-01 1.259631481331169867e-01
1.910477290604092604e-01 3.739008772472498965e+00 6.083900629971748408e+00 1.970975130687244725e-01 8.464597017378326649e-02 9.767229034252565834e-01
2.008438345260169788e-01 3.783770821768003501e+00 6.084841382325194559e+00 2.611981949837175465e-01 1.400051305389293232e-01 9.550780420258991876e-01
3.522573688637683498e-01 3.350929971466705570e+00 5.823334903347380020e+00 -4.042362090160643573e-02 -4.038638765522145624e-01 9.139255440622177096e-01
2.865946182482020932e-01 3.279915677069452418e+00 6.149838541604923492e+00 -2.787599475631900581e-01 -2.303061613204761826e-01 9.323368295269658379e-01
1.464484222397526569e-01 3.556030587417078337e+00 6.063722955297758510e+00 1.907379854879127923e-01 5.119175468687238439e-02 9.803052714048271499e-01
1.886240809609626701e-01 3.686266363907688692e+00 6.076936508150052596e+00 1.098838710599517321e-01 9.463144564976633255e-02 9.894293427906388771e-01
1.803071601325355322e-01 3.710676530368317128e+00 6.085221838954971929e+00 8.725421742036534867e-02 6.630134199035279952e-02 9.939772802195420143e-01
1.743447590000389569e-01 3.624192503701923584e+00 6.074129623496799191e+00 1.076711619740712972e-01 1.594010147956512469e-01 9.813247359367183176e-01
1.328112898871837422e-01 3.063393320476800685e+00 5.959424642092467472e+00 -9.035531372974577868e-01 -3.389888083218285386e-01 -2.620654802000219052e-01
6.732542993934594044e-02 3.176042224193141195e+00 5.884520149634232311e+00 -9.496936354269166491e-01 -3.048593020499569817e-01 7.171335149900517902e-02
9.134169970362815416e-02 3.367725313518873165e+00 5.983003263779311354e+00 -8.295551330926104194e-01 -5.538957844681858811e-01 -7.097704634650928157e-02
8.414427148228120767e-02 3.387385425636854297e+00 5.983962523391329391e+00 -8.151716350111626319e-01 -5.792194367033293156e-01 2.227516679903524671e-04
5.925909133915236576e-02 3.392470073635379002e+00 5.961101047499400174e+00 -8.651371594509480456e-01 -4.769113256675024948e-01 -1.552201107692245674e-01
-2.131896101343849492e-01 3.546692995311902408e+00 5.751330551504896249e+00 2.114348084973093622e-01 2.128792722453848874e-01 9.539275324698313074e-01
7.631556077759991952e-02 3.669537272531643080e+00 5.938189455806385020e+00 7.793237397722595494e-01 -6.243152087022530994e-01 5.371246420005212213e-02
4.411097921702883395e-02 3.696957440314379451e+00 5.909939585931635264e+00 -9.843459614183108775e-01 -1.268018728409630036e-01 -1.224104296352476889e-01
-1.096940017937909038e-02 3.805840334369133604e+00 5.865108276690911282e+00 -3.328013954299893773e-01 -5.626480391889415733e-01 -7.567499026737238843e-01
1.489092998274630097e-01 3.745309399573154785e+00 6.076814007946386376e+00 9.248176963901866623e-03 1.033129509574944871e-01 9.946059045608459659e-01
1.796608740966103568e-01 2.986723608279080011e+00 5.965048816699612289e+00 -5.698836659068169386e-01 -8.178342829805773651e-01 7.987297987588277970e-02
2.742267365762037779e-01 3.228710630668249593e+00 6.139788430721204726e+00 -2.787599475631900581e-01 -2.303061613204761826e-01 9.323368295269658379e-01
6.722462641226749358e-02 3.305645192279808242e+00 5.951909911665690167e+00 -8.626936200861833326e-01 -5.056422424279852779e-01 -9.254217146492030657e-03
1.340382315806747104e-01 3.362625172743500368e+00 5.991668384503504363e+00 -5.371083779548874865e-02 -1.613891900807769841e-01 9.854281684772246974e-01
7.079607881572434758e-02 3.409277887821037911e+00 5.974090896540014128e+00 -8.581995282259347047e-01 -5.007224304893479472e-01 -1.130071562230608173e-01
4.887987357828006002e-02 3.470038208294845550e+00 5.969424816449027560e+00 -9.031941674187444757e-01 -4.289203209280070261e-01 1.636014167959306403e-02
6.730076825366712590e-02 3.673179525390865674e+00 5.931405144843970412e+00 8.186984574863138686e-01 -5.692934843261862055e-01 7.508504786760587801e-02
1.002916504785713037e-01 3.388349623332595595e+00 5.991873854955901635e+00 -5.299052769637996319e-01 -8.371924381781862268e-01 1.353115623410753865e-01
1.102104609870908497e-01 3.490729327476843835e+00 6.043667046614656257e+00 4.261945239440255717e-01 -7.177800582559811238e-01 5.505906062858012540e-01
2.756932137912913583e-01 2.823021329966606263e+00 5.937468303118355273e+00 3.495443398511098310e-01 -9.276745393866894229e-01 1.312962430983666273e-01
1.332450366576875267e-01 3.237293916526579274e+00 6.065715379195363077e+00 1.459072944491554280e-01 4.805662155518025114e-01 8.647353201394901712e-01
7.000885893326153075e-02 3.360416553927314531e+00 5.965974461765029879e+00 -8.490512870791735445e-01 -5.239270748699614844e-01 -6.791415262965520838e-02
7.033080708151016880e-02 3.430428227420679654e+00 5.987329752812449613e+00 -8.439081096482728972e-01 -5.345241092138776073e-01 -4.585934080412867875e-02
-2.147951087983311358e-01 3.537908088998226397e+00 5.749912583415662581e+00 2.214605900882473111e-01 2.211208683304325406e-01 9.497687974589188453e-01
3.841841497675733269e-02 3.753428631479542421e+00 5.904354833593237650e+00 -7.316616042888628435e-01 -5.360333736933715620e-01 -4.211169897977870002e-01
-7.777616209598417485e-02 3.838325783186554485e+00 5.831433321029201977e+00 -3.627570698247220005e-01 2.132580545272074746e-01 9.071539618341818434e-01
6.575557247258231874e-02 3.887595815629203866e+00 5.973181314036443368e+00 -1.000000000000000000e+00 -0.000000000000000000e+00 -0.000000000000000000e+00
7.972274478693629554e-03 3.179099099737699330e+00 5.849710680566931664e+00 -7.641014617851186186e-01 -4.827748870609858134e-01 -4.278754077077777107e-01
1.787650397168567482e-02 3.710604560649270578e+00 5.871054070080300669e+00 -8.866696090717531842e-01 -2.279247976461248049e-01 4.023273430510502235e-01
-2.865233116080137532e-02 3.802013090109392035e+00 5.852800861783761910e+00 -3.191614351718405906e-01 6.700243220157850454e-02 9.453288593807572804e-01
8.214681054414589567e-02 3.261521680004658474e+00 5.967409121897843782e+00 7.845990307584236323e-01 -6.194462635678397167e-01 2.628093386438979870e-02
4.942247878857514154e-02 3.309392615852277952e+00 5.900485595461992361e+00 -9.829807053889318968e-01 -1.181168665427481529e-01 1.407030158568055300e-01
4.140866305506824691e-02 3.367227433512547830e+00 5.859496490147989789e+00 -9.017287757021812400e-01 -4.303387514449946161e-01 -4.115548657722427339e-02
8.884671674392373431e-02 3.554928295291914342e+00 6.038495094533515406e+00 4.260662498698006839e-01 4.776945798191082476e-02 9.034299251220313520e-01
-3.663133388634142590e-02 3.797064385747647819e+00 5.840184220103488144e+00 4.742077142580410909e-01 3.010806733996291285e-01 8.273315368359832611e-01
1.846728455760354021e-02 3.812296123769348899e+00 5.890518154519628347e+00 -6.248768229669228180e-01 -4.361402146781959144e-01 -6.475420212304544565e-01
1.908185935915790998e-01 2.916375058297442813e+00 5.970400734280493893e+00 -8.066803367993873319e-01 -5.895573500589850191e-01 -4.109702194386333218e-02
-2.089088742797558240e-01 3.558568077212761249e+00 5.756814226630083020e+00 2.079240455897904682e-01 1.888943493288895992e-01 9.597325231840329041e-01
-1.203290391687488747e-01 3.743637507146981402e+00 5.794469308652895556e+00 -4.388184319744644624e-01 1.748840346912233085e-02 8.984055540253373939e-01
-1.711872942822677823e-01 3.741520244276359541e+00 5.775651309280768864e+00 -3.628689237750760688e-01 -9.208145780439164207e-02 9.272794343060435374e-01
-6.576237647237645478e-02 3.807607790289593730e+00 5.824256394106105184e+00 -1.175980721633145820e-01 -2.448308921915326175e-01 9.624076722741615741e-01
-8.846893741810220313e-02 3.811615165577857400e+00 5.820680996123109630e+00 -4.376634262765157213e-01 1.535726580925934892e-01 8.859267260819464473e-01
-4.117576180247554951e-02 3.844470425117020085e+00 5.851061496782925531e+00 -3.205338779203931732e-01 -2.818693023371143802e-01 9.043272247949318832e-01
-2.544725082572885655e-01 3.482502191078176601e+00 5.719472481393355068e+00 4.535184140233995409e-01 -1.265068943465925688e-01 8.822227914900409029e-01
3.493346916551868381e-02 3.727497503713641525e+00 5.902638543349134181e+00 -8.464409806124348901e-01 -2.168595244334113048e-01 4.863225400928624653e-01
-1.772596925475247165e-01 3.652561916068075121e+00 5.772028903365768571e+00 1.197562375585117661e-01 1.862899760216265854e-01 9.751689537714433031e-01
-8.236933038027810516e-02 3.850581932581746525e+00 5.828996493279483104e+00 1.623462551051400304e-01 3.605961225353437882e-01 9.184846922327080110e-01
5.780061332723306772e-02 3.377808985912712281e+00 5.954265152685356277e+00 -8.693574100045496911e-01 -4.745501216400351274e-01 -1.379125654957118474e-01
-2.425280173592883615e-01 3.493541966345535599e+00 5.731159142513654103e+00 4.209347219825978481e-01 -1.713921214883490918e-01 8.907517614471249789e-01
3.083489463593701643e-02 3.789102212124821456e+00 5.897307741151255556e+00 -6.009516320229174591e-01 -6.180225740205363971e-01 5.068581990754633670e-01
5.941194065584419481e-02 3.252657677270974990e+00 5.911975470154014367e+00 -9.914556362783994992e-01 -1.142394594663247304e-01 6.296877950727675088e-02
-9.462645176947832859e-02 3.786252353481490918e+00 5.805736051908854556e+00 -4.083378883435022089e-01 1.174674939341426305e-01 9.052411594774079084e-01
2.778274292756317300e-03 3.653562283672841193e+00 5.829786564445561758e+00 -9.141000241039336505e-01 -3.120660265240673970e-01 -2.589129989449508451e-01
-1.933220044891240386e-01 3.541716989929546866e+00 5.759774968295585218e+00 2.044626346639445147e-01 2.042337659625332591e-01 9.573314994645479858e-01
1.173343251427530626e-01 3.194989065060703126e+00 6.045054188512084536e+00 -3.276715509266958648e-01 -4.126231436343150705e-01 8.499255826545224490e-01
3.027436823928076892e-01 3.274160770043387014e+00 6.141537831244926693e+00 -2.787599475631900581e-01 -2.303061613204761826e-01 9.323368295269658379e-01
8.946720637405919385e-02 3.289335858400909807e+00 5.976557453118135577e+00 7.226479481731873378e-01 -6.904350147707717378e-01 3.285473146391523075e-02
7.296721127104621729e-02 3.311582345134608030e+00 5.962187778092206791e+00 -8.588115611122373316e-01 -5.122043278016178425e-01 9.456695049260064115e-03
8.311910069861341843e-02 3.355408326468438229e+00 5.977264905661387573e+00 -8.431935332391443660e-01 -5.363574673848460206e-01 -3.667877702707006415e-02
4.150539200404060325e-02 3.476029961978384986e+00 5.945314250931196476e+00 -9.542976722533059730e-01 -2.976645301380886344e-01 -2.667920968830649053e-02
-2.356814478558516002e-01 3.500074184219278184e+00 5.734394747905017908e+00 3.785393480270374256e-01 3.953177659758800450e-02 9.247406126229689161e-01
7.299419936588533164e-02 3.583263973942095060e+00 5.995923993600710489e+00 -8.906007696552371566e-01 4.537779613188968608e-01 -3.026269833912962129e-02
2.935136897359437794e-02 3.637379800434423327e+00 5.881170535710932512e+00 -9.944718768645849361e-01 -4.009439826413530028e-02 -9.704702650399438246e-02
1.104056969074336016e-02 3.738956422635916432e+00 5.874181135252684705e+00 -8.455117073493496616e-01 -3.741824770713328974e-01 3.809165611888634673e-01
-2.626643019438123713e-02 3.791113530640976226e+00 5.838414490205371621e+00 -2.410032581173340016e-01 2.925671024377053397e-01 9.253766369149561966e-01
-3.666780142962323963e-02 3.804983819899375952e+00 5.847442411198723100e+00 4.077256065481283942e-01 2.062037080156322311e-01 8.895166443443115467e-01
-9.059395726650276703e-02 3.799352355403609494e+00 5.812803723004798861e+00 -4.469598143298811332e-01 8.896338733513982355e-02 8.901193403628842038e-01
-1.086208209226754012e-01 3.816684055886880866e+00 5.808499016887004096e+00 -4.769090481904362244e-01 -4.827897059735767812e-03 8.789393899263321375e-01
9.787903906113647190e-02 3.565420718639106479e+00 6.044303952316176343e+00 4.668235949480027958e-01 -8.794563502000316349e-03 8.843067266806422522e-01
-2.278491709333411164e-01 3.545825930296595097e+00 5.743267803502194013e+00 2.214605900882473111e-01 2.211208683304325406e-01 9.497687974589188453e-01
3.439346152481630864e-02 3.661159452698768302e+00 5.897859924917685959e+00 -9.924447308891591879e-01 -9.009433436149555385e-02 -8.328545519058787316e-02
1.497534453712271452e-01 3.736790282452734591e+00 6.077530741372928702e+00 1.340911170085794524e-01 1.030303995688190422e-01 9.855984522634362310e-01
6.683319801288067907e-02 3.318566831073063828e+00 5.954378610213255207e+00 -8.599687551377231953e-01 -5.103413476575940910e-01 2.334321722744397195e-03
5.214281142560685950e-02 3.387978862601791263e+00 5.946279341966957510e+00 -8.891454183999222272e-01 -4.422704960565411181e-01 -1.175467279694668576e-01
-2.250282188384952475e-01 3.517109956452209474e+00 5.741213190719010484e+00 -3.102979271515722282e-01 -2.339317873187978791e-01 9.214071387216782316e-01
4.780398129998397749e-02 3.725993414185157615e+00 5.914650455867148438e+00 -8.966404839252072323e-01 -2.383908926550803997e-01 3.731027001851955904e-01
-4.186430422274914354e-02 3.793221803855221008e+00 5.831507553702226510e+00 -3.740640594589532131e-01 -2.570438274959505609e-01 -8.910693296075904435e-01
-1.998615915346311500e-01 3.907142788381487097e+00 5.941463883210844621e+00 -1.240746597179464145e-01 -7.638966738824585212e-01 6.332987845047496345e-01
-1.837241777424489936e-02 3.797975910151095924e+00 5.858787322153317767e+00 2.898026045371239756e-01 5.292762406708528822e-02 9.556218483344300907e-01
7.340213281184165828e-02 3.183060365775674416e+00 5.968219836048092475e+00 -8.289649724680417942e-01 -5.445399009948186375e-01 1.276454881521929818e-01
-2.609848685519470246e-01 3.488472735897035548e+00 5.719387975177193439e+00 4.425561607748764170e-01 -1.333237873123461759e-01 8.867743863559063300e-01
-1.098319709386392090e-01 3.801714745983788113e+00 5.807518708772678728e+00 -4.578507441114165188e-01 -3.630059626634435377e-02 8.882876577029145126e-01
6.618829401783193900e-02 3.224070362986450444e+00 5.942291052129225370e+00 -9.808787978105867333e-01 -1.863476942990875962e-01 -5.613662650241617313e-02
4.897552509341834143e-02 3.366328935741309092e+00 5.896863406514685657e+00 -9.946626567550493903e-01 -9.343762527895181635e-02 -4.376767573469121653e-02
2.637178702579395101e-02 3.715834627597806694e+00 5.888490650037905283e+00 -8.547272846354972975e-01 -1.516191678349660954e-01 4.964402248455119793e-01
-3.438475270943391199e-02 3.758836867629295586e+00 5.832023433728076967e+00 -3.966237759578761235e-01 -4.392549840370363889e-01 -8.060673913163461934e-01
1.175229089147259154e-01 3.029558367481827830e+00 5.932414727967604939e+00 -8.827111775280370720e-01 -3.635449408546824190e-01 2.977516633807971713e-01
3.000948269544104763e-01 3.247574035850012475e+00 6.140274125738256927e+00 -2.787599475631900581e-01 -2.303061613204761826e-01 9.323368295269658379e-01
6.584018349896762767e-02 3.213207015724552029e+00 5.937164961237058947e+00 -9.826969953121845736e-01 -1.792741350112693755e-01 -4.655534255448540853e-02
7.808407825130274371e-02 3.215943479845163822e+00 5.970143260668605123e+00 -8.550494637949964671e-01 -4.473585035076160232e-01 2.622227751422726016e-01
8.076037813571995683e-02 3.239354397410269648e+00 5.968069837280546075e+00 -8.917050600931777371e-01 -4.396611680305436143e-01 -1.075181060577268394e-01
-1.811323165105890864e-02 3.423457294614099311e+00 5.830184950973838376e+00 5.448768773418914968e-01 -8.338328644040202686e-01 -8.849826426510511157e-02
-2.382015330595908531e-01 3.527355647606416067e+00 5.732652117637018208e+00 -3.084208476023237444e-01 -2.389190698889800679e-01 9.207574375521758725e-01
5.268630041933589775e-02 3.703122284531719099e+00 5.917551952400559756e+00 -9.633907821696652274e-01 -2.484702050415988073e-01 -1.007013308606525409e-01
-1.227279363411195173e-01 3.667532127798705854e+00 5.770708801668625654e+00 -1.686143608858350906e-01 -2.235613349128171834e-01 9.599945452110968391e-01
-1.855552872644563311e-01 3.653993763465805511e+00 5.767552463355806402e+00 7.080126512023292296e-02 9.561677370179726132e-02 9.928970809929061891e-01
1.502858375048364004e-01 3.765296422422329314e+00 6.068742434584703638e+00 -1.179434207329640855e-01 -8.470909124736483720e-02 9.894006869645143309e-01
2.220194556388968288e-01 3.874688702600840085e+00 5.879018398563221837e+00 -7.126631326088836982e-01 5.609706424205007647e-01 4.212163313101999207e-01
2.593522404979750270e-02 3.781897457373435856e+00 5.895152836520620276e+00 -5.905102702222183586e-01 -6.441478362921331247e-01 4.861801988586597068e-01
-1.614442473251404553e-01 3.775921342671320069e+00 5.776818246158359926e+00 4.284361659324458227e-01 -9.479080018650827555e-02 8.985861983811610498e-01
8.477274695773329150e-02 3.247939777440461029e+00 5.975413391315945510e+00 -7.674298230536719112e-01 -6.067544845844051737e-01 -2.071242673481846486e-01
7.906986424676959446e-02 3.273929159134209232e+00 5.969343138875315979e+00 -9.278687453315461742e-01 -3.728978257835822152e-01 -2.608248979626280779e-03
5.930309041141047094e-02 3.287016445637701345e+00 5.931915613101472751e+00 -9.316362994759348481e-01 -3.527985656239399082e-01 -8.710325821963511850e-02
6.218523008757013276e-02 3.301408667732032232e+00 5.929769793209325179e+00 -9.339054197637454147e-01 -3.494448399263359040e-01 -7.555773146912191096e-02
4.807579868037693827e-02 3.415757628571401305e+00 5.950498577469646833e+00 -9.032929782937965113e-01 -4.177766964749878298e-01 -9.759317213600775254e-02
6.506305323475941593e-02 3.421960921024087554e+00 5.976471948770289977e+00 -8.548404491007679518e-01 -5.170415406977140194e-01 -4.377044407053280045e-02
5.949369297290191955e-02 3.449182519135486125e+00 5.981466999345754765e+00 -8.802622027363525836e-01 -4.726194646057905180e-01 -4.206300166987886335e-02
5.746301980183487340e-02 3.515904977517393171e+00 5.989544313421547805e+00 -9.074062449692205101e-01 4.013489499899001722e-01 1.246311635702059550e-01
3.080611417534275410e-03 3.535463392929776738e+00 5.832442221133613991e+00 -8.739426870774827938e-01 -3.534755078616763635e-01 3.335854388994204944e-01
3.826903376396771639e-02 3.704204205780115888e+00 5.908395733066509337e+00 -9.174548240574257330e-01 -1.553744360230853716e-01 -3.662450415285730121e-01
-1.914196121594453903e-01 3.591064902257252278e+00 5.760542695940928937e+00 9.246963210345457429e-02 1.192464720361457176e-01 9.885492633377378491e-01
1.603402344562532833e-01 3.767675215818239387e+00 6.080695624665140464e+00 9.372846196982538569e-02 -1.869303697303947298e-01 9.778916158190684715e-01
-5.080535172581546882e-03 3.779136056113811648e+00 5.868543344993909727e+00 -3.650308085350454923e-01 -7.632351308909044452e-01 5.331272304002069307e-01
1.776121432107341247e-01 3.856743939890570516e+00 6.091397808296505900e+00 -6.516987833025169596e-01 -7.117897013361855763e-01 2.620002231177723240e-01
7.785506575584150157e-02 3.138315749763055607e+00 5.904919646750038886e+00 -9.403379589573053199e-01 -2.950751886032983995e-01 1.693964462872144527e-01
8.959680549964087193e-02 3.522831014977206188e+00 6.037381510671536056e+00 -3.457169524097009061e-01 -1.453897770095898268e-01 -9.270067969317433709e-01
1.073064623432351122e-01 3.576315593900696310e+00 6.052130481553730235e+00 -3.079877389874366433e-01 -2.050258790426967570e-01 9.290360281260228170e-01
4.317695046055149838e-02 3.646725291152117077e+00 5.906765105935244620e+00 -9.965127660445687319e-01 8.222213236055186947e-02 -1.420662029781825930e-02
1.680384461919589290e-01 3.834871760353083747e+00 6.076130411565638489e+00 5.528549964574551723e-01 -8.055711386183531664e-01 2.130879947748275383e-01
6.798074320049544983e-02 3.177619851178401067e+00 5.907507433951406206e+00 -9.880664475317927353e-01 -1.539836015020636939e-01 -3.707523480264450066e-03
5.509606172664988089e-02 3.355037729401141089e+00 5.938867026082657929e+00 -8.890481033854799042e-01 -4.547054458241802655e-01 -5.325812054996165862e-02
7.284180617804127122e-02 3.335194777717777281e+00 5.966579702768565419e+00 -8.599715216397254558e-01 -5.095048733658212869e-01 -2.921927420614057677e-02
3.755749322694437731e-02 3.466075198283546932e+00 5.939448650336775160e+00 -9.531213287283684110e-01 -3.018091994961571434e-01 -2.170114795484577239e-02
1.301845224594285477e-01 2.975284147472611718e+00 5.929585618661553426e+00 -7.701784502802104804e-01 -5.005863849788938502e-01 -3.952700670399115213e-01
6.651413596268609951e-02 3.206409703009111212e+00 5.901132971839678554e+00 -9.928180715705190451e-01 -9.308221444071305972e-02 -7.515303132814189768e-02
7.495241267793845141e-02 3.262244757862196476e+00 5.823564187416510940e+00 -6.531418111817227645e-01 -6.008382832525677175e-01 4.608678030242145951e-01
6.020198861044771810e-02 3.358327864065019153e+00 5.951860909817355605e+00 -8.634749143720749087e-01 -5.026878170992421513e-01 -4.142500199320232196e-02
5.350170576497420560e-02 3.376467906996952095e+00 5.907620442204254196e+00 -9.848127500696198799e-01 -1.650467222174408222e-01 5.388345558324263845e-02
3.920873748627091288e-02 3.456356712283105814e+00 5.907678291817709315e+00 -9.919173300369060753e-01 -1.225706693045804235e-01 3.280916638201294283e-02
8.032265249933841222e-02 3.486922130325908142e+00 6.027041202629366268e+00 -5.720438726978356314e-01 -6.024405958546763529e-01 -5.566247714350527342e-01
4.501969301786530597e-02 3.566643463251672141e+00 5.931114356290650313e+00 -7.363623717449986339e-01 7.783510703872641157e-02 -6.720953456097952250e-01
-2.498891993952535029e-01 3.518303859252938981e+00 5.726839448146836098e+00 -3.207788111898766670e-01 -2.390520321580339447e-01 9.164906329105191318e-01
-1.708499166956921611e-01 3.727027009685154102e+00 5.776467551141991841e+00 -3.097006867320523105e-01 -1.265461842604292952e-01 9.423754813697250432e-01
-5.725103871204045153e-02 3.879684496444547381e+00 5.827516550889646041e+00 8.727354956153231258e-02 -4.566293117861603967e-01 -8.853660255310387139e-01
-1.998370368320162571e-01 3.907147225026008641e+00 5.941438272765523720e+00 -1.240746597179464145e-01 -7.638966738824585212e-01 6.332987845047496345e-01
6.458836844745552419e-02 3.252175631329497829e+00 5.940199244848793469e+00 -9.484768857021562694e-01 -3.093455420292450242e-01 -6.853417333981096093e-02
7.473045198036436243e-02 3.267186351260752630e+00 5.962049631016848039e+00 -9.315440061082569390e-01 -3.624300946660996559e-01 -2.949900276453020637e-02
5.662732368995813947e-02 3.391155705360455297e+00 5.956972235377143932e+00 -8.570032975567322131e-01 -5.057271197820280006e-01 -9.892132375712238412e-02
6.974998323990519444e-02 3.535518668275549725e+00 6.013165423131327181e+00 -3.856915480795681805e-01 6.011843276901007727e-02 9.206670428452320420e-01
4.160434942942405068e-02 3.527662879506563431e+00 5.939805049340420418e+00 -9.638717830843720469e-01 -2.269298675692427436e-01 -1.394776719721086966e-01
1.088622874994193135e-01 3.627414198620038999e+00 6.035903023294180159e+00 -2.377690308011774223e-01 -2.561543076433518973e-01 9.369369555459021726e-01
-1.723116627339291163e-01 3.520869812965994772e+00 5.750712255702346454e+00 -2.128244133886660616e-01 -2.164852647406281250e-01 -9.528063282829047909e-01
1.923217151155530158e-01 3.826173683265254866e+00 6.120463234746873482e+00 -3.881839554756869037e-01 -9.139844864231064792e-01 -1.180913853299221661e-01
-2.062456642333876655e-01 3.610275305635523679e+00 5.753306515647703456e+00 5.541051801055742881e-02 1.259426924488968591e-01 9.904888251325828508e-01
-1.542521255973809680e-01 3.771181583599201748e+00 5.789491578441669617e+00 -4.284361659324458227e-01 9.479080018650827555e-02 -8.985861983811610498e-01
7.983766540308323556e-02 3.122034039061642563e+00 5.940046053197447051e+00 -9.109579115611996514e-01 -3.191569299091328582e-01 -2.613322357747593916e-01
5.701670383953369448e-02 3.499321167224939799e+00 5.998266556965305085e+00 -8.911284750608047256e-01 2.979303928851405603e-01 -3.422389836519370565e-01
5.417698620565619683e-02 3.521987743883219224e+00 5.973396657648961217e+00 -9.246552640650804733e-01 3.742060723909068076e-01 7.058652861918990329e-02
6.158289482531227599e-02 3.531492845723625873e+00 5.997119070422665565e+00 -2.503938613791086842e-01 1.002443502584269841e-01 9.629402808195975938e-01
3.706791848362832320e-02 3.591734286167092005e+00 5.890649187631039396e+00 -9.554746924940221708e-01 2.929377911871470230e-01 3.543391733705106988e-02
9.543024558439104632e-02 3.213710713926349882e+00 6.028485931546818222e+00 -4.088008255042772099e-01 -2.066420082198868191e-01 8.889212369528999291e-01
4.121700621462867642e-02 3.447522627106476278e+00 5.902506243959297016e+00 -9.956746176696050776e-01 -6.952978020923786251e-02 6.162520095335075748e-02
7.159583717832410099e-02 3.502756415574913351e+00 6.018191061026001876e+00 -7.589787930467362109e-01 4.964208198160477981e-01 -4.213283296414840895e-01
-1.856666446231585166e-01 3.713909557139103867e+00 5.758160914754413717e+00 -2.439706384404965456e-01 -2.123147587961630445e-01 9.462561866515133424e-01
8.447294883911307672e-02 3.133712051081585237e+00 5.870879861580012182e+00 -3.231923956372620976e-01 -3.330036396948282129e-01 -8.858076830510357436e-01
6.290905871048875497e-02 3.491949506742061615e+00 6.004673652717149146e+00 -6.590884433842441048e-01 -9.723783547965290930e-02 -7.457527922499288531e-01
4.048737949528782853e-02 3.440332097573103098e+00 5.927851199795197701e+00 -9.698382629265142052e-01 -2.355930827377288872e-01 -6.252713914625267211e-02
2.656824434105262145e-01 3.260548473862644681e+00 6.139477815256989324e+00 -2.787599475631900581e-01 -2.303061613204761826e-01 9.323368295269658379e-01
2.302237578646997851e-01 3.263091357257322134e+00 6.111585085397165606e+00 -3.990555468408819029e-01 -3.258353240297325037e-02 9.163476326982403775e-01
6.478200645263834656e-02 3.284874035960895888e+00 5.946581407407650843e+00 -9.254328549152918137e-01 -3.773296391761032931e-01 -3.458864615107561796e-02
7.423277471492288615e-02 3.470835371002669589e+00 6.015038967927535118e+00 -7.356264989453421554e-01 -6.306529103947414727e-01 -2.472459517566692744e-01
3.707723762805598816e-02 3.487520913742200968e+00 5.927060666240854481e+00 -9.756310231275236999e-01 -1.808592090342474312e-01 -1.242338650233815595e-01
5.182075059030279152e-02 3.496015337656429800e+00 5.964192106925518821e+00 -9.306835544070289901e-01 3.297687562035330200e-01 -1.583688384382290482e-01
6.406040638797652620e-02 3.524200160733507836e+00 6.004525305560398429e+00 -8.849718664547262525e-01 4.393361822446759102e-01 1.543000795667689162e-01
1.220067703208513876e-01 3.659222320883354307e+00 6.030372119924821916e+00 -2.907993825061602200e-01 -1.804238833378102869e-01 9.396185084678462252e-01
-1.840159583937424903e-01 3.535087869749091283e+00 5.766572197855491133e+00 -1.949684657822869649e-01 -2.230688581837256268e-01 -9.551060579114291071e-01
3.251496330717638938e-02 3.713568654517869660e+00 5.899861732242569268e+00 -9.640893767307664453e-01 -2.126076612377582886e-01 1.591529329226851197e-01
1.637146381509730075e-01 3.820307558994068486e+00 6.068028834281064654e+00 5.280311630845293536e-01 -8.395178965678838923e-01 1.280343397445970755e-01
-1.064839320000026124e-01 3.714195706390233997e+00 5.782871004031566287e+00 -4.122514229749361658e-01 -7.862138898356284267e-02 9.076714391504425716e-01
-1.984409003697711338e-01 3.667466220292526558e+00 5.754390060655150130e+00 -8.490891104415432267e-02 -1.266580279421392341e-01 -9.883057324447248604e-01
4.987334502993820418e-02 3.371063574313818201e+00 5.903190461660350330e+00 -9.902724426078040043e-01 -1.331008853201962883e-01 4.055420740876860414e-02
7.973936737819169174e-02 3.503154014054843390e+00 6.029807815587954423e+00 -6.172448967549388765e-01 6.053447978379863370e-01 5.025598602758409861e-01
5.424692755604718780e-02 3.497450893295226404e+00 5.973139393647953987e+00 -9.274005453268446830e-01 2.492519620281672954e-01 2.789295394048116883e-01
3.722305314066924609e-02 3.491569047112964785e+00 5.936107239585358464e+00 -9.631202388135962078e-01 -2.257124536866103870e-01 -1.464694297060350758e-01
3.787342990691562605e-02 3.575253242272182330e+00 5.905092096320796458e+00 -9.995881893099242133e-01 -2.823202281997851809e-02 -5.138548394197757496e-03
2.124727580501417357e-01 3.823048050013774013e+00 6.144086682214871864e+00 -1.727504875342837920e-01 -6.926741630842927488e-01 7.002569334552437574e-01
1.984866990085018892e-02 3.753806617896882081e+00 5.884474785284782072e+00 -7.738038890724934227e-01 -5.363152200609648812e-01 -3.370363867407240588e-01
6.645849040808395058e-02 3.255598808410140599e+00 5.949070370473690694e+00 -9.576429620602615600e-01 -2.846558516716242715e-01 -4.348566804765328225e-02
4.217167629016532054e-02 3.442000426111706535e+00 5.944425770385974417e+00 -9.172758230173884142e-01 -3.946394020646527001e-01 -5.352389042125513946e-02
3.851966101774352558e-02 3.523930195890021100e+00 5.930588622521734798e+00 -9.772140033890847066e-01 1.629284383239737177e-01 1.360408599119736495e-01
3.792778517206377153e-02 3.559524127006399308e+00 5.910720219558179167e+00 -9.984450346324023062e-01 -5.559863473429676323e-02 4.037899649992265916e-03
7.343803159054461405e-02 3.138921328415994694e+00 5.963614414801853947e+00 -7.563138502664026319e-01 -3.514275607487561959e-01 5.518043398174651282e-01
6.185282282743085475e-02 3.228291835071429361e+00 5.925460712658508378e+00 -9.939158478200530444e-01 -7.032994139796316935e-02 8.476430141931486084e-02
3.430811660503911564e-02 3.532032783645172369e+00 5.894459254340683962e+00 -9.953376552910747632e-01 6.650057471942462384e-02 -6.986147380102851467e-02
-2.060628643304991126e-01 3.624617734215441089e+00 5.747780535418028691e+00 1.846616690304058589e-02 -1.644733475406224554e-01 -9.862086587678545735e-01
1.300547717060656638e-01 2.979806013089218997e+00 5.887030586232148366e+00 -3.576974194830704334e-01 -6.965829233223258532e-01 6.219523993288190722e-01
6.476077989345059571e-02 3.238597376768983072e+00 5.906703452464519444e+00 -9.954575891719779079e-01 -5.736588793991797414e-02 7.598251812607093036e-02
5.478852336708676940e-02 3.352652585815450781e+00 5.900764252897900519e+00 -9.959632646013039103e-01 -8.976175864917877723e-02 4.742277803008466806e-05
6.231435976248658054e-02 3.475336774370817228e+00 5.999723227768812173e+00 -8.511729890501993356e-01 4.827675356062591794e-01 -2.060098281053809877e-01
8.915413258193739809e-02 3.554193206940414740e+00 6.034133210809565995e+00 -4.318287681054765459e-01 -4.221068784824774656e-02 -9.009673539412428322e-01
6.027595280881656997e-02 3.549505231249030945e+00 5.981669466827966630e+00 6.454649624886303616e-02 -1.228512602360930656e-01 -9.903238448509654734e-01
9.206778337160766157e-02 3.586259700425344921e+00 6.029244957449622966e+00 -5.088188411913392439e-01 9.189913239924445143e-02 -8.559544008374327939e-01
3.404544058603411333e-02 3.567567080968264914e+00 5.891561247134211143e+00 -9.678370757362512178e-01 -2.354627564742017842e-01 -8.859280526020540947e-02
4.027442692120075662e-02 3.641336015501733137e+00 5.891997885627407783e+00 -9.889493311624224514e-01 1.477878687299623295e-01 1.174590352646453367e-02
2.740454548036285742e-01 3.800354995191062901e+00 6.120079784948472046e+00 6.890618367976106273e-02 -9.593388244060976344e-01 -2.737169301263957522e-01
1.954938785128055093e-02 3.640356219764233625e+00 5.869432889345138626e+00 -9.800952173589956296e-01 -9.187384094652630007e-02 1.759902334215038833e-01
2.503969381021255505e-02 3.699339652080996910e+00 5.847561196032591724e+00 -9.362182773409717385e-01 -2.611091109691814904e-01 2.351964484034292091e-01
-2.099422236189351088e-01 3.601261267385174047e+00 5.742643120738970985e+00 -8.772396314481598067e-02 -1.995211307097128628e-01 -9.759589257189487110e-01
-2.648132481073066022e-03 3.763491327259933072e+00 5.857807357498145073e+00 -6.648818796838427136e-01 -7.113370308881482584e-01 2.278853100910937513e-01
2.897452476505410837e-02 3.326594145266376312e+00 5.887045225573957374e+00 -9.718525253469553205e-01 -2.176276349472444083e-01 -9.022683350320251372e-02
5.361651013253729975e-02 3.351015904150806524e+00 5.925179715308702910e+00 -9.030409137741692849e-01 -4.270698501640349254e-01 -4.613513986954149992e-02
4.785767865450528402e-02 3.390832742936980448e+00 5.935211046315362893e+00 -9.101527177309970407e-01 -3.987594099155131744e-01 -1.123074503793573681e-01
4.150089632303358839e-02 3.444082131921309298e+00 5.938842088108597927e+00 -9.398746145835676913e-01 -3.336264312605036197e-01 -7.300077551485473215e-02
4.065033335464714181e-02 3.616116731104718429e+00 5.902219651987566706e+00 -9.981476437556878745e-01 2.275725214058459470e-02 -5.642152727441925725e-02
3.704233455011356896e-02 3.624258776392379033e+00 5.869810651396789147e+00 -9.267044760326174080e-01 -3.682629929290596738e-01 7.484104582408876438e-02
1.723549013788977236e-01 3.847689950028866601e+00 6.081724099616693024e+00 -6.516987833025169596e-01 -7.117897013361855763e-01 2.620002231177723240e-01
1.021401926419563712e-02 3.743918688561341579e+00 5.876501006805652239e+00 -7.706190184604944093e-01 -5.264613503048850562e-01 3.591445043741324783e-01
5.695448296522459541e-02 3.327641700049292162e+00 5.929551722277978776e+00 -8.851816373120290349e-01 -4.620684003594761613e-01 -5.427948373769286156e-02
5.442369396762782724e-02 3.531790208868956782e+00 5.970970456748120547e+00 -9.309009495318044669e-01 3.629234055516399327e-01 4.135243479632804559e-02
3.602098432994566002e-02 3.500076348866220322e+00 5.916611034438895800e+00 -9.882787510611926729e-01 -1.435623250201887302e-01 5.191309117868809359e-02
3.802016349115829030e-02 3.539471193450679731e+00 5.914772595375229258e+00 -9.938360646219936978e-01 6.669405596616663490e-02 -8.855382292961823387e-02
